ply
format ascii 1.0
element vertex 113
property float x
property float y
property float z
property float nx
property float ny
property float nz
property uchar diffuse_red
property uchar diffuse_green
property uchar diffuse_blue
property float quality
end_header
-0.8541492223739624 0.98199868202209473 -4.6116466522216797 -0.22338500618934631 -0.29412570595741272 0.92929506301879883 33 20 28 0.91322559118270874
-0.759113609790802 0.95923101902008057 -4.6348876953125 0.028160661458969116 -0.14514490962028503 0.98900961875915527 46 28 33 0.98027855157852173
-0.63213652372360229 0.7365679144859314 -4.6570711135864258 -0.0061295926570892334 -0.089689970016479492 0.99595093727111816 224 172 185 0.96338886022567749
-0.93876940011978149 0.49360820651054382 -4.6135435104370117 -0.42098230123519897 -0.66597586870193481 0.6158328652381897 44 45 69 0.89659261703491211
-0.45106214284896851 0.29504501819610596 -4.6467657089233398 -0.58621084690093994 -0.5908195972442627 0.55433666706085205 198 143 157 0.78583496809005737
1.0315643548965454 1.7081457376480103 -5.7714500427246094 -0.367850661277771 0.0016658306121826172 0.92988348007202148 194 136 152 0.88598394393920898
1.7943450212478638 1.4773222208023071 -5.667081356048584 -0.62567567825317383 -0.70912152528762817 0.32507959008216858 175 122 129 0.74141418933868408
2.4937214851379395 0.99130266904830933 -5.5142989158630371 -0.98488038778305054 -0.1449565589427948 0.094859451055526733 210 173 90 0.83660787343978882
1.0609074831008911 1.5819134712219238 -5.863945484161377 -0.079853132367134094 -0.92714327573776245 0.36609935760498047 200 136 151 0.95185279846191406
-1.4721403121948242 0.2926776111125946 -4.9216094017028809 -0.15746095776557922 -0.45407304167747498 0.87694001197814941 101 82 91 0.89973974227905273
-1.4496369361877441 0.26217404007911682 -4.9411816596984863 -0.13703247904777527 -0.63533610105514526 0.75998038053512573 96 70 80 0.87970054149627686
-1.391754150390625 0.28845679759979248 -4.941889762878418 0.49628305435180664 -0.48878756165504456 0.71748864650726318 222 173 185 0.95946288108825684
0.59388220310211182 0.43191057443618774 -5.4598989486694336 0.085425227880477905 -0.26570326089859009 0.96026277542114258 232 218 229 0.88418340682983398
1.6352819204330444 0.83358901739120483 -5.8637852668762207 -0.66496729850769043 -0.63688826560974121 0.3901178240776062 180 107 114 0.8259967565536499
-0.13910356163978577 0.55711889266967773 -5.5832295417785645 -0.715160071849823 -0.46418023109436035 0.52257341146469116 214 184 198 0.96565085649490356
2.4412569999694824 -0.14989805221557617 -5.9045100212097168 -0.98108839988708496 -0.16977427899837494 0.092962667346000671 226 198 107 0.87544989585876465
2.3223700523376465 -0.062097795307636261 -6.1596722602844238 -0.82366198301315308 0.092538803815841675 0.55947977304458618 195 161 44 0.89603811502456665
2.3181774616241455 -0.6081051230430603 -6.1874680519104004 -0.82403779029846191 -0.018759354948997498 0.56622421741485596 225 197 63 0.85006105899810791
0.79408329725265503 -0.64028310775756836 -5.8131260871887207 0.0021848678588867188 -0.52815008163452148 0.84914815425872803 174 44 55 0.93351143598556519
3.5514445304870605 3.6711061000823975 -10.92363452911377 0.1668117344379425 0.15622490644454956 0.97353363037109375 181 109 45 0.88402873277664185
2.174055814743042 -1.0242983102798462 -6.5092954635620117 -0.89308935403823853 0.23779809474945068 0.38189470767974854 202 176 53 0.83135074377059937
-2.1580321788787842 3.706653356552124 -11.140347480773926 0.073896899819374084 -0.84074348211288452 0.53636705875396729 130 126 147 0.96204972267150879
-1.9640153646469116 3.6179115772247314 -11.152113914489746 -0.28177627921104431 -0.83343291282653809 0.47538593411445618 28 18 17 0.96747291088104248
-2.031810998916626 3.5963149070739746 -11.198830604553223 -0.29390016198158264 -0.7880827784538269 0.54087734222412109 19 18 20 0.97887164354324341
-2.3136637210845947 3.6310315132141113 -11.306512832641602 0.0039003510028123856 -0.90623748302459717 0.42275115847587585 134 127 149 0.96342778205871582
-0.89940494298934937 2.3342056274414062 -10.150832176208496 -0.029713567346334457 -0.32606908679008484 0.94487887620925903 13 13 13 0.956257164478302
-2.3470582962036133 3.5985321998596191 -11.32962703704834 -0.20196928083896637 -0.50884091854095459 0.83683294057846069 133 127 150 0.93099892139434814
-2.5261144638061523 3.576542854309082 -11.521064758300781 -0.26256132125854492 -0.77296680212020874 0.57756716012954712 134 128 150 0.91752123832702637
-1.1999051570892334 3.261223316192627 -11.567032814025879 -0.17164754867553711 -0.86521822214126587 0.47109928727149963 60 30 11 0.86953592300415039
-2.7190816402435303 3.5108590126037598 -11.734184265136719 0.074028953909873962 -0.88735020160675049 0.45511454343795776 132 127 149 0.93454700708389282
-1.860617995262146 3.250593900680542 -11.725101470947266 0.11634376645088196 -0.76033192873001099 0.63903021812438965 93 45 26 0.99236786365509033
-1.8393362760543823 3.2683591842651367 -11.726905822753906 0.22683490812778473 -0.76964890956878662 0.5968136191368103 100 48 24 0.98664891719818115
-0.69211494922637939 1.9736263751983643 -10.372076988220215 0.58125960826873779 0.10790299624204636 0.80653220415115356 65 58 63 0.88845103979110718
1.6255711317062378 4.392632007598877 -16.017078399658203 -0.80014711618423462 -0.51857852935791016 0.30139833688735962 95 40 45 0.83766806125640869
-3.115675687789917 3.2692601680755615 -12.408096313476562 -0.431988924741745 -0.78315365314483643 0.44727626442909241 24 23 28 0.8374563455581665
0.020830500870943069 3.2546069622039795 -14.143388748168945 -0.86864155530929565 -0.29079219698905945 0.40112581849098206 51 39 41 0.91056019067764282
0.90244501829147339 2.9000396728515625 -8.934138298034668 -0.11246566474437714 -0.2113831639289856 0.97091132402420044 41 33 36 0.94189053773880005
0.75720542669296265 2.7555716037750244 -8.7251977920532227 0.65391218662261963 0.15643036365509033 0.74022191762924194 6 6 6 0.91430920362472534
2.0846118927001953 2.4222629070281982 -6.6527032852172852 0.35832539200782776 -0.58519250154495239 0.72742873430252075 180 154 46 0.97099089622497559
-0.47767144441604614 3.1386516094207764 -11.087777137756348 0.82145917415618896 -0.25656184554100037 0.50929439067840576 4 4 4 0.9731367826461792
0.24503421783447266 1.8566827774047852 -5.9917564392089844 -0.30293694138526917 -0.81921952962875366 0.48693808913230896 17 13 13 0.91707456111907959
0.069156832993030548 2.9603526592254639 -10.507458686828613 -0.26285165548324585 0.68708318471908569 0.67736673355102539 25 20 19 0.83324825763702393
-0.083616927266120911 1.7647746801376343 -5.8846020698547363 -0.65404260158538818 -0.16833390295505524 0.73749035596847534 24 18 12 0.7924162745475769
-0.21271596848964691 1.4299273490905762 -4.7455730438232422 -0.59822499752044678 -0.63069999217987061 0.49431198835372925 62 13 16 0.86227881908416748
0.49132037162780762 1.83735191822052 -5.9950070381164551 0.3375914990901947 -0.5622289776802063 0.75493741035461426 23 10 9 0.90877199172973633
2.2126591205596924 2.2168204784393311 -6.4040517807006836 0.3626006543636322 -0.52221757173538208 0.77188700437545776 195 166 50 0.8437303900718689
0.18336068093776703 1.7640417814254761 -6.0024285316467285 -0.27121433615684509 0.65208077430725098 0.70797848701477051 128 11 17 0.96288245916366577
0.42982843518257141 1.8012492656707764 -6.0305542945861816 -0.28082475066184998 0.49846810102462769 0.82016283273696899 116 9 13 0.97794300317764282
0.57091134786605835 1.8209624290466309 -6.0515704154968262 0.31763526797294617 -0.18004168570041656 0.93096345663070679 118 10 14 0.94200319051742554
0.5977785587310791 1.8426462411880493 -6.053380012512207 0.24158304929733276 0.081293694674968719 0.96696895360946655 152 18 25 0.95969057083129883
0.62269145250320435 1.8437347412109375 -6.0737557411193848 0.17540439963340759 0.34558957815170288 0.92184662818908691 158 20 28 0.928383469581604
2.3079957962036133 1.9860092401504517 -6.1179265975952148 -0.97480350732803345 -0.17011681199073792 0.14428582787513733 192 164 52 0.77055156230926514
2.3518550395965576 1.9352812767028809 -5.9287242889404297 0.0030510276556015015 -0.7296784520149231 0.68378371000289917 197 168 48 0.91446298360824585
-0.90069711208343506 2.3345098495483398 -10.159814834594727 0.5553746223449707 0.21560443937778473 0.8031647801399231 12 12 12 0.97799485921859741
-0.1476055383682251 2.3965692520141602 -10.064715385437012 -0.047481223940849304 0.53483211994171143 0.84362316131591797 34 25 21 0.93127107620239258
0.38317596912384033 1.6110281944274902 -5.963193416595459 -0.20681421458721161 0.56055045127868652 0.80187976360321045 135 9 15 0.97438758611679077
-0.92000126838684082 2.2411038875579834 -10.09493350982666 0.10897918045520782 0.37397706508636475 0.92101287841796875 12 12 13 0.97675323486328125
0.2331579327583313 1.5694786310195923 -5.9548101425170898 -0.21584784984588623 0.66762733459472656 0.71251916885375977 96 2 2 0.97299623489379883
-0.0091284383088350296 1.4903305768966675 -6.0368013381958008 -0.75895822048187256 -0.51454514265060425 0.39903077483177185 165 20 31 0.94372457265853882
1.0316109657287598 1.601780891418457 -5.9540715217590332 -0.40337616205215454 -0.86689954996109009 0.29287010431289673 189 85 97 0.98273241519927979
-0.11748886853456497 1.4347776174545288 -6.1196718215942383 -0.66377717256546021 -0.18540856242179871 0.72458505630493164 174 23 35 0.94315695762634277
0.37611457705497742 1.4416606426239014 -5.880699634552002 -0.1796194314956665 0.00096877198666334152 0.98373574018478394 171 23 36 0.97344624996185303
1.1467897891998291 1.5662585496902466 -5.9504361152648926 -0.39215874671936035 -0.13346438109874725 0.91016417741775513 202 142 154 0.99493318796157837
0.73063445091247559 1.5241761207580566 -6.1411490440368652 0.63245958089828491 0.073590442538261414 0.77108979225158691 155 18 26 0.95510679483413696
1.189410924911499 1.5536742210388184 -5.9602556228637695 -0.70152997970581055 -0.17326159775257111 0.69125688076019287 203 143 155 0.9951205849647522
1.0934016704559326 1.5279710292816162 -6.0310850143432617 -0.92362958192825317 0.059954095631837845 0.37856835126876831 59 25 18 0.98452067375183105
1.1544739007949829 1.5065298080444336 -6.0381903648376465 -0.42476972937583923 -0.85607707500457764 0.29445338249206543 48 30 20 0.98328614234924316
2.4385316371917725 1.6631464958190918 -5.8040647506713867 -0.98459547758102417 -0.12661121785640717 0.12058795243501663 201 178 116 0.96347826719284058
0.75968539714813232 1.4651807546615601 -6.2405514717102051 0.52668869495391846 -0.6226847767829895 0.57867312431335449 26 10 9 0.96739721298217773
1.2579346895217896 1.3526549339294434 -6.1978898048400879 -0.34096550941467285 0.62453526258468628 0.70263659954071045 167 23 35 0.94319874048233032
1.833736777305603 1.3167836666107178 -5.5484409332275391 0.41044583916664124 0.23565506935119629 0.88090920448303223 159 104 97 0.91408628225326538
-1.0944218635559082 0.78298079967498779 -4.6584162712097168 -0.26672255992889404 -0.67750239372253418 0.68545573949813843 169 113 128 0.93823480606079102
-1.4257968664169312 0.7335885763168335 -4.8169765472412109 0.083554506301879883 0.029211796820163727 0.99607503414154053 100 80 92 0.95516526699066162
-1.1543340682983398 0.7261924147605896 -4.6472582817077637 0.013038694858551025 -0.66902226209640503 0.74312794208526611 182 123 139 0.91459161043167114
-1.2450165748596191 0.61917412281036377 -4.6308279037475586 -0.61488401889801025 0.54177772998809814 0.57305705547332764 226 166 179 0.91073071956634521
-0.037766672670841217 0.87427598237991333 -5.6862349510192871 0.43172553181648254 0.41079485416412354 0.80303215980529785 172 24 36 0.96552783250808716
-2.3844647407531738 1.2854208946228027 -12.699435234069824 -0.26217532157897949 -0.76355046033859253 0.59013122320175171 30 25 29 0.83127361536026001
-0.85952520370483398 0.55320161581039429 -4.6774263381958008 -0.056138336658477783 0.30222007632255554 0.95158374309539795 191 223 251 0.97982996702194214
0.85980474948883057 0.86902427673339844 -5.7902131080627441 0.5361972451210022 -0.50273752212524414 0.67804694175720215 167 20 31 0.85783040523529053
0.38145944476127625 0.73125141859054565 -5.4929928779602051 -0.021180653944611549 -0.6906934380531311 0.72283738851547241 42 9 11 0.93756008148193359
0.092396169900894165 0.57630568742752075 -5.5174288749694824 0.14739231765270233 0.27866566181182861 0.94901055097579956 112 60 83 0.99058997631072998
-1.5028141736984253 0.36184468865394592 -4.9654011726379395 0.051561892032623291 -0.83632457256317139 0.54580450057983398 104 91 107 0.77900516986846924
1.0993384122848511 0.6615443229675293 -5.671302318572998 -0.46892634034156799 0.65443086624145508 0.59315109252929688 92 8 10 0.97314292192459106
1.590038537979126 0.7202906608581543 -5.9538350105285645 0.50891512632369995 -0.045211952179670334 0.85962867736816406 184 34 46 0.86361318826675415
-0.6185835599899292 0.40226292610168457 -4.6907463073730469 0.081067800521850586 0.63961285352706909 0.76441055536270142 168 118 135 0.96182674169540405
-1.3967976570129395 0.27355989813804626 -4.9749612808227539 0.71541416645050049 -0.28741922974586487 0.63684600591659546 233 184 196 0.94780701398849487
0.36211133003234863 0.48145797848701477 -5.5537271499633789 -0.014648070558905602 -0.66144394874572754 0.74985164403915405 81 10 16 0.98071163892745972
2.0148942470550537 0.67662996053695679 -6.4561324119567871 -0.047559898346662521 -0.69432759284973145 0.71808582544326782 181 119 121 0.945098876953125
0.92037492990493774 0.52182257175445557 -5.5838642120361328 -0.23140303790569305 -0.69521248340606689 0.68053823709487915 225 202 211 0.93653565645217896
0.71296089887619019 0.45308035612106323 -5.5205092430114746 0.0011359378695487976 -0.64479893445968628 0.76435136795043945 224 207 220 0.9750104546546936
0.024098826572299004 0.23035615682601929 -5.6670546531677246 0.20341472327709198 0.056536965072154999 0.97745895385742188 240 230 239 0.99176865816116333
-1.0178996324539185 0.11459115892648697 -4.7419466972351074 -0.11611880362033844 -0.58749240636825562 0.80085515975952148 230 171 184 0.94171375036239624
0.15403120219707489 0.18994997441768646 -5.6869468688964844 0.64127057790756226 -0.12802210450172424 0.75655955076217651 236 220 231 0.98602950572967529
0.75458657741546631 0.27132946252822876 -5.8729648590087891 -0.79062151908874512 0.43485638499259949 0.43106573820114136 215 36 61 0.94907253980636597
2.1652569770812988 0.29144400358200073 -6.6195058822631836 -0.2879987359046936 -0.71206426620483398 0.64032906293869019 92 53 16 0.92602342367172241
0.92844980955123901 -0.016351466998457909 -5.8298115730285645 -0.29765278100967407 0.34368598461151123 0.89066421985626221 197 165 182 0.95284461975097656
-0.50961464643478394 -0.13931603729724884 -4.9974770545959473 0.76303112506866455 -0.085156664252281189 0.64072757959365845 225 171 183 0.79786819219589233
-0.45267301797866821 -0.21983328461647034 -5.0323066711425781 -0.67029601335525513 -0.38179343938827515 0.63634663820266724 108 87 75 0.92907142639160156
1.2796719074249268 -0.1578451544046402 -5.4171862602233887 -0.59664106369018555 0.16914257407188416 0.7844807505607605 180 115 126 0.89284193515777588
-0.83303135633468628 -0.35927766561508179 -5.2346115112304688 -0.049741365015506744 -0.76030272245407104 0.64766156673431396 235 183 197 0.97690176963806152
-0.74601036310195923 -0.34697180986404419 -5.3151373863220215 -0.79393470287322998 0.40666723251342773 0.45198386907577515 243 203 213 0.98197007179260254
1.2332628965377808 -0.38357356190681458 -5.4640359878540039 -0.1377604752779007 -0.28363543748855591 0.94898521900177002 189 126 139 0.91025447845458984
0.93686479330062866 -0.61215025186538696 -5.8678722381591797 -0.31571173667907715 -0.73329997062683105 0.60216057300567627 174 107 65 0.74624967575073242
2.4398531913757324 -0.47520884871482849 -5.3824014663696289 -0.91287815570831299 -0.35477668046951294 0.20195749402046204 231 165 176 0.89979094266891479
2.3038802146911621 -0.63582801818847656 -5.7627177238464355 -0.71219301223754883 -0.45666775107383728 0.53313744068145752 230 203 73 0.81077563762664795
2.3786523342132568 -0.62301766872406006 -5.8417105674743652 -0.53404408693313599 -0.17743030190467834 0.82662886381149292 224 197 67 0.81770557165145874
2.3800704479217529 -0.81290692090988159 -5.9015336036682129 -0.67056751251220703 0.015570074319839478 0.74168497323989868 219 191 61 0.81503552198410034
-1.4823030233383179 -1.1397671699523926 -4.9594202041625977 -0.77474582195281982 0.30483394861221313 0.55393600463867188 62 57 66 0.73200768232345581
2.8270883560180664 -2.7840232849121094 -9.8395071029663086 0.59905463457107544 0.12021122872829437 0.79163289070129395 82 65 76 0.77220302820205688
1.0687578916549683 1.7985774278640747 -5.8343844413757324 0.071382500231266022 0.65994352102279663 0.74791651964187622 165 115 131 0.96806877851486206
1.2083250284194946 1.3147244453430176 -6.3357877731323242 0.47736537456512451 -0.38724654912948608 0.78877276182174683 63 4 3 0.96277463436126709
2.4227583408355713 -0.31041252613067627 -7.0314011573791504 0.54817098379135132 0.35039469599723816 0.75942879915237427 146 98 21 0.8446042537689209
1.8648930788040161 -1.5781509876251221 -7.2537956237792969 0.41524121165275574 0.65000045299530029 0.63645440340042114 157 145 133 0.74355769157409668
