ply
format ascii 1.0
element vertex 151
property float x
property float y
property float z
property float nx
property float ny
property float nz
property uchar diffuse_red
property uchar diffuse_green
property uchar diffuse_blue
property float quality
end_header
6.2756495475769043 -0.73357754945755005 15.336624145507812 0.11171214282512665 0.51859676837921143 -0.84768962860107422 237 239 230 0.85378646850585938
6.490595817565918 -0.7702910304069519 15.547738075256348 -0.98373907804489136 0.12772934138774872 -0.12626414000988007 236 236 226 0.87427651882171631
6.5527925491333008 -0.73733943700790405 15.473189353942871 0.074140578508377075 -0.59366393089294434 -0.80129039287567139 240 237 227 0.82407641410827637
7.7186856269836426 -0.86242401599884033 17.156768798828125 -0.95327973365783691 0.016164515167474747 -0.30165624618530273 187 185 177 0.68481719493865967
7.5880718231201172 -0.81622916460037231 17.047927856445312 0.01798049733042717 -0.25499257445335388 -0.96677583456039429 215 212 199 0.89010000228881836
5.8937811851501465 -0.69500619173049927 14.895967483520508 0.26532307267189026 0.74803906679153442 -0.60831010341644287 237 236 228 0.86738669872283936
5.8937811851501465 -0.69500619173049927 14.895967483520508 0.26532307267189026 0.74803906679153442 -0.60831010341644287 237 236 228 0.86738669872283936
5.8937811851501465 -0.69500619173049927 14.895967483520508 0.26532307267189026 0.74803906679153442 -0.60831010341644287 214 216 206 0.86738669872283936
6.1596403121948242 -0.6746600866317749 15.328048706054688 0.23588408529758453 0.61667591333389282 -0.7510455846786499 183 186 167 0.84606868028640747
6.5834369659423828 -0.70340210199356079 15.782777786254883 0.43129590153694153 -0.0099347038194537163 -0.90215581655502319 176 177 159 0.94420397281646729
6.8571953773498535 -0.76496148109436035 16.148674011230469 0.39756551384925842 0.033326081931591034 -0.91696840524673462 229 225 212 0.88761770725250244
7.0082697868347168 -0.73699641227722168 16.226282119750977 -0.033400021493434906 -0.81296950578689575 -0.58134758472442627 188 186 166 0.89722543954849243
7.3996715545654297 -0.73263490200042725 16.576770782470703 -0.082875125110149384 0.85657453536987305 -0.50932478904724121 147 149 129 0.88749825954437256
7.8328638076782227 -0.77795612812042236 17.185056686401367 -0.97249859571456909 -0.11342231929302216 -0.20342537760734558 166 169 148 0.85896337032318115
7.9887361526489258 -0.79786622524261475 17.51866340637207 -0.99075913429260254 -0.038990266621112823 -0.12990780174732208 175 178 155 0.90598911046981812
-2.8238043785095215 -0.42487791180610657 11.14612865447998 0.09981062263250351 0.87859159708023071 -0.4670274555683136 119 123 115 0.92526090145111084
5.8470544815063477 -0.58081549406051636 14.867106437683105 0.38911938667297363 0.6365845799446106 -0.66584247350692749 86 89 81 0.93105560541152954
6.2860326766967773 -0.63310456275939941 15.303739547729492 0.24592684209346771 0.75261193513870239 -0.61081522703170776 107 110 97 0.95594513416290283
6.3113412857055664 -0.64206188917160034 15.315616607666016 0.089926540851593018 0.83432549238204956 -0.54388797283172607 120 122 107 0.90540099143981934
6.3113412857055664 -0.64206188917160034 15.315616607666016 0.089926540851593018 0.83432549238204956 -0.54388797283172607 120 122 107 0.90540099143981934
6.617769718170166 -0.66072636842727661 15.806526184082031 0.34461227059364319 0.14541962742805481 -0.92741334438323975 120 122 107 0.93336260318756104
6.8308634757995605 -0.64146184921264648 16.030832290649414 -0.029547492042183876 0.86100685596466064 -0.50773429870605469 77 81 72 0.96033602952957153
7.2283620834350586 -0.68445247411727905 16.39384651184082 0.0058446656912565231 -0.81220442056655884 -0.58334368467330933 89 93 81 0.92492973804473877
7.7892293930053711 -0.66794627904891968 17.247116088867188 -0.98708814382553101 0.095068767666816711 -0.12891420722007751 70 74 67 0.93843770027160645
-2.9349291324615479 -0.38015583157539368 11.238632202148438 0.44855442643165588 0.67434728145599365 -0.58656173944473267 222 222 218 0.92364966869354248
6.560758113861084 -0.54918909072875977 15.823822021484375 0.21141801774501801 -0.55238443613052368 -0.80633360147476196 69 73 70 0.9521138072013855
6.6991968154907227 -0.5504450798034668 15.905878067016602 0.57501453161239624 0.24736444652080536 -0.77985197305679321 68 73 69 0.96185976266860962
6.9519634246826172 -0.57097369432449341 15.87490177154541 0.20573394000530243 -0.42117905616760254 -0.88333553075790405 69 73 68 0.96668636798858643
7.4997768402099609 -0.58936613798141479 16.725271224975586 -0.9879576563835144 0.10443108528852463 -0.11416516453027725 71 74 69 0.94560730457305908
7.9460000991821289 -0.5921514630317688 17.452749252319336 -0.99216139316558838 -0.073705360293388367 -0.10091205686330795 67 69 64 0.92458415031433105
7.9727001190185547 -0.5940316915512085 17.501018524169922 -0.99210292100906372 -0.075268611311912537 -0.10033209621906281 67 69 64 0.95284932851791382
6.4019832611083984 -0.41702592372894287 15.359439849853516 0.38460361957550049 -0.5802149772644043 -0.71793502569198608 66 72 67 0.76403909921646118
6.4313678741455078 -0.41894000768661499 15.429938316345215 0.36490681767463684 -0.60190778970718384 -0.71031689643859863 66 72 67 0.74137729406356812
7.2889866828918457 -0.47495159506797791 16.442026138305664 -0.98848408460617065 0.10809522122144699 -0.10589899122714996 61 65 61 0.92427688837051392
-2.9068160057067871 -0.26360225677490234 11.417679786682129 -0.4176647961139679 0.44385910034179688 -0.7928084135055542 154 136 131 0.91905534267425537
-2.7900002002716064 -0.044380296021699905 11.645303726196289 0.94147717952728271 -0.17296992242336273 -0.28931319713592529 199 204 199 0.8162568211555481
-2.521550178527832 -0.019086401909589767 11.735185623168945 -0.71920841932296753 -0.15999723970890045 -0.67612141370773315 96 99 104 0.75348544120788574
-2.3657758235931396 0.08244788646697998 11.262788772583008 0.94248729944229126 -0.093896999955177307 -0.32078185677528381 40 50 57 0.83447325229644775
-2.2985022068023682 0.20296947658061981 11.000591278076172 0.92579752206802368 -0.18362230062484741 -0.33042663335800171 26 29 35 0.79222172498703003
6.0520005226135254 -0.77312862873077393 14.969658851623535 0.43601644039154053 0.58212018013000488 -0.6863132119178772 255 254 254 0.87194979190826416
6.0064349174499512 -0.76730775833129883 14.856951713562012 0.44050401449203491 0.57642173767089844 -0.68825441598892212 255 254 254 0.80951398611068726
6.0064349174499512 -0.76730775833129883 14.856951713562012 0.44050401449203491 0.57642173767089844 -0.68825441598892212 255 254 254 0.80951398611068726
6.8591890335083008 -0.77315443754196167 16.204883575439453 0.08347010612487793 0.36168003082275391 -0.92855817079544067 245 244 236 0.82735550403594971
7.1004180908203125 -0.79266500473022461 16.442895889282227 0.39681607484817505 0.06477799266576767 -0.91560953855514526 228 224 210 0.88815063238143921
7.3486776351928711 -0.80515140295028687 16.759233474731445 0.38731324672698975 0.020925084128975868 -0.92171072959899902 235 235 223 0.87322407960891724
8.0822820663452148 -0.86302310228347778 17.669572830200195 -0.9893375039100647 0.10370913147926331 -0.10225317627191544 234 235 222 0.7648807168006897
7.0981245040893555 -0.77167749404907227 16.235626220703125 0.044090680778026581 -0.37214580178260803 -0.92712646722793579 231 232 218 0.85144233703613281
8.2167444229125977 -0.76581877470016479 17.664670944213867 -0.99015086889266968 0.10178669542074203 -0.096128910779953003 92 97 86 0.89507687091827393
8.2625007629394531 -0.81857335567474365 17.679750442504883 -0.99307572841644287 -0.0069350022822618484 -0.11727140843868256 207 207 187 0.82069540023803711
8.1437215805053711 -0.65254837274551392 17.704578399658203 -0.98143476247787476 0.088120229542255402 -0.17035458981990814 68 73 67 0.94016921520233154
8.3046684265136719 -0.71830874681472778 17.653879165649414 -0.99336564540863037 -0.072201371192932129 -0.089508429169654846 70 74 65 0.89312624931335449
-2.8354074954986572 -0.36751142144203186 11.29050350189209 0.20115822553634644 0.84008914232254028 -0.50377136468887329 86 79 79 0.9176257848739624
8.2018356323242188 -0.60527926683425903 17.560937881469727 -0.99056559801101685 -0.099737338721752167 -0.093980096280574799 68 71 66 0.96934670209884644
8.0056381225585938 -0.5378803014755249 17.165237426757812 -0.99223577976226807 0.088509730994701385 -0.087374418973922729 68 71 65 0.97236961126327515
-2.8550472259521484 -0.033511176705360413 11.854337692260742 -0.38874131441116333 0.69401031732559204 -0.60599493980407715 220 217 207 0.90105694532394409
-2.6075804233551025 -0.0034500770270824432 11.202163696289062 0.91663360595703125 -0.26406815648078918 -0.3000846803188324 158 160 157 0.90822035074234009
-2.585113525390625 0.022981304675340652 11.62237548828125 -0.68598645925521851 0.18557038903236389 -0.7035524845123291 74 85 90 0.86622631549835205
-2.7715911865234375 0.030597779899835587 11.737456321716309 0.94230347871780396 -0.16557353734970093 -0.29094618558883667 87 90 88 0.90384650230407715
-2.7194356918334961 0.07428240031003952 11.795234680175781 0.8792915940284729 -0.13463698327541351 -0.45685791969299316 31 36 38 0.91204124689102173
-2.4946153163909912 0.1192549541592598 11.342427253723145 0.9277641773223877 -0.19150277972221375 -0.32028165459632874 27 31 35 0.94381952285766602
-2.3850805759429932 0.13785284757614136 11.153675079345703 0.94109219312667847 -0.12093183398246765 -0.31578639149665833 25 29 34 0.90481621026992798
-2.474984884262085 0.24295027554035187 11.368999481201172 0.92187857627868652 -0.08377433568239212 -0.37831425666809082 22 21 26 0.79949349164962769
-2.36281418800354 0.27404135465621948 11.099197387695312 0.93235170841217041 -0.18869861960411072 -0.30840417742729187 20 19 24 0.85888820886611938
-2.3786473274230957 0.27811875939369202 11.177391052246094 0.93670773506164551 -0.16572479903697968 -0.30840536952018738 20 19 24 0.90097737312316895
-2.2808151245117188 0.32269048690795898 11.029087066650391 0.91876780986785889 -0.17697186768054962 -0.3529115617275238 57 56 58 0.82400709390640259
6.3025445938110352 -0.84015506505966187 15.339072227478027 -0.97980529069900513 0.15126115083694458 -0.13077346980571747 255 255 254 0.92464852333068848
6.4191713333129883 -0.83941876888275146 15.474642753601074 -0.2316395491361618 0.39481848478317261 -0.88907903432846069 255 255 255 0.83167368173599243
6.5335712432861328 -0.75560623407363892 15.455660820007324 0.37150672078132629 0.24167585372924805 -0.89642375707626343 241 238 236 0.79628491401672363
7.7872781753540039 -0.8689647912979126 17.285348892211914 -0.98989152908325195 0.10264775902032852 -0.097868159413337708 214 212 205 0.83909642696380615
-2.5992465019226074 -0.39974713325500488 11.516171455383301 0.85964870452880859 0.41013270616531372 -0.30462327599525452 250 252 251 0.84394121170043945
-2.6093695163726807 -0.4013039767742157 11.56102180480957 0.86878883838653564 0.39110070466995239 -0.30372056365013123 242 244 243 0.82690739631652832
-2.8335344791412354 -0.30533191561698914 11.376970291137695 0.2757323682308197 0.56253558397293091 -0.77943921089172363 232 228 227 0.88800555467605591
-2.7374420166015625 -0.34315177798271179 11.338621139526367 0.08267684280872345 0.83197081089019775 -0.54862475395202637 252 253 251 0.77813839912414551
7.6603827476501465 -0.48567295074462891 17.019479751586914 -0.99052578210830688 0.093953140079975128 -0.1001567468047142 64 68 64 0.90474599599838257
7.7703895568847656 -0.46656715869903564 17.163148880004883 -0.99091339111328125 0.092219851911067963 -0.097908712923526764 63 66 63 0.80832558870315552
7.810272216796875 -0.46896186470985413 17.251239776611328 -0.99019140005111694 0.099195346236228943 -0.098393552005290985 64 67 64 0.80529266595840454
7.810272216796875 -0.46896186470985413 17.251239776611328 -0.99019140005111694 0.099195346236228943 -0.098393552005290985 64 67 64 0.80529266595840454
-2.5697653293609619 -0.013700935989618301 11.348091125488281 0.89043384790420532 -0.073960006237030029 -0.44906291365623474 176 187 185 0.79403281211853027
-2.9050514698028564 0.063085213303565979 11.813652038574219 0.52284777164459229 -0.16333954036235809 -0.83663040399551392 64 73 74 0.88983649015426636
-2.4762568473815918 0.050704970955848694 11.459853172302246 0.81671833992004395 -0.23086169362068176 -0.52884221076965332 40 52 61 0.68765604496002197
-2.6101393699645996 0.1170346736907959 11.607089042663574 0.94510847330093384 -0.13180501759052277 -0.29899406433105469 23 25 28 0.93637555837631226
-2.3833119869232178 0.15277338027954102 11.082876205444336 0.90109521150588989 -0.29948580265045166 -0.31358513236045837 27 29 34 0.82042896747589111
-2.474984884262085 0.24295027554035187 11.368999481201172 0.92187857627868652 -0.08377433568239212 -0.37831425666809082 21 22 26 0.79949349164962769
-2.4394979476928711 0.30197429656982422 11.491996765136719 0.94135206937789917 -0.13333269953727722 -0.30996569991111755 19 19 22 0.94251692295074463
-2.3276617527008057 0.31626880168914795 11.299931526184082 0.87089145183563232 0.039878986775875092 -0.48985487222671509 35 33 36 0.9413144588470459
-2.3688554763793945 0.35811939835548401 11.470880508422852 0.94177442789077759 0.060492157936096191 -0.33075913786888123 57 57 60 0.93315804004669189
7.4257216453552246 -0.8876834511756897 16.838356018066406 -0.98884081840515137 0.1048736646771431 -0.10580784827470779 254 254 250 0.78253078460693359
7.775270938873291 -0.86762493848800659 17.258697509765625 -0.9897117018699646 0.10437425225973129 -0.097860626876354218 227 223 217 0.8783104419708252
-2.6734457015991211 -0.35730841755867004 11.470364570617676 0.63894373178482056 0.6686522364616394 -0.38033550977706909 209 212 205 0.83588492870330811
-2.5846683979034424 -0.32773393392562866 11.602544784545898 0.90624570846557617 0.29468637704849243 -0.30311486124992371 105 99 91 0.84094774723052979
-2.6474795341491699 -0.22439548373222351 11.325747489929199 0.95548701286315918 -0.047037381678819656 -0.29125949740409851 182 191 188 0.85108989477157593
-2.6475255489349365 -0.15034811198711395 11.467219352722168 0.95001065731048584 0.10908134281635284 -0.2925422191619873 146 158 156 0.8938899040222168
-2.6103966236114502 -0.075655534863471985 11.477535247802734 0.80138444900512695 -0.30383148789405823 -0.51523709297180176 118 129 136 0.83767342567443848
-2.5890271663665771 -0.0061163739301264286 11.621281623840332 0.92154181003570557 -0.23760993778705597 -0.30708655714988708 160 170 170 0.76210963726043701
-2.5134642124176025 -0.0038624457083642483 11.312872886657715 0.92069762945175171 -0.24004611372947693 -0.30772337317466736 165 176 173 0.80173438787460327
-2.5137789249420166 -0.0038629292976111174 11.314289093017578 0.9222528338432312 -0.23445270955562592 -0.30737856030464172 155 167 167 0.75372552871704102
-2.8251397609710693 0.10369668155908585 11.758888244628906 0.84391635656356812 -0.11523444205522537 -0.52395248413085938 73 93 89 0.83505600690841675
-2.8070211410522461 0.13490314781665802 11.946866989135742 0.94757241010665894 -0.10468672960996628 -0.30190595984458923 25 28 32 0.84095698595046997
-2.7384679317474365 0.13051556050777435 11.867570877075195 0.94389349222183228 -0.097723804414272308 -0.31546011567115784 25 27 30 0.90229123830795288
-2.7080645561218262 0.12586303055286407 11.794108390808105 0.83512419462203979 -0.23217423260211945 -0.4986608624458313 23 25 28 0.95367586612701416
-2.7103054523468018 0.12596718966960907 11.803868293762207 0.94773411750793457 -0.12247210741043091 -0.29461926221847534 23 25 28 0.93913751840591431
-2.6332137584686279 0.13292357325553894 11.70378589630127 0.87815827131271362 -0.22839930653572083 -0.42032349109649658 22 24 28 0.95197504758834839
-2.4949746131896973 0.19479498267173767 11.389274597167969 0.92462003231048584 -0.22727464139461517 -0.30565339326858521 25 26 31 0.90772843360900879
-2.3817665576934814 0.16908456385135651 11.137008666992188 0.93909943103790283 -0.13395063579082489 -0.31646421551704407 25 27 33 0.91174137592315674
-2.393113374710083 0.16989007592201233 11.190065383911133 0.93785744905471802 -0.11862365156412125 -0.32611623406410217 25 27 33 0.87077534198760986
-2.3747894763946533 0.16714289784431458 11.104005813598633 0.92721652984619141 -0.18855142593383789 -0.32360118627548218 25 27 33 0.92343789339065552
-2.3809561729431152 0.16535820066928864 11.118707656860352 0.93155980110168457 -0.17804259061813354 -0.31701293587684631 25 28 33 0.92890971899032593
-2.3923695087432861 0.16838021576404572 11.186205863952637 0.92626452445983887 -0.12049849331378937 -0.3570912778377533 25 27 33 0.86534559726715088
-2.3946824073791504 0.17000146210193634 11.197402000427246 0.94523721933364868 -0.10784881561994553 -0.30805078148841858 25 27 33 0.86493360996246338
-2.3744549751281738 0.17450641095638275 11.104507446289062 0.92832076549530029 -0.20566155016422272 -0.30971574783325195 25 27 33 0.92637676000595093
-2.4410505294799805 0.24832409620285034 11.217208862304688 0.93845468759536743 -0.16401703655719757 -0.30397561192512512 21 22 27 0.66754472255706787
-2.5376288890838623 0.40160340070724487 11.722433090209961 0.58945578336715698 0.64041447639465332 -0.492352694272995 23 23 28 0.80382311344146729
-2.2774684429168701 0.38045394420623779 11.336696624755859 0.90787321329116821 -0.27175971865653992 -0.31923797726631165 76 81 82 0.80978131294250488
-2.4556076526641846 0.4273470938205719 11.58524227142334 0.94334620237350464 0.10297819972038269 -0.3154258131980896 86 85 90 0.89829778671264648
-2.4573099613189697 0.43738794326782227 11.66325569152832 0.94062787294387817 -0.12913994491100311 -0.31391412019729614 113 110 114 0.87959730625152588
-2.4542815685272217 0.43474933505058289 11.641732215881348 0.82021844387054443 -0.13794480264186859 -0.55516928434371948 108 106 110 0.8804352879524231
-2.4056937694549561 0.41167706251144409 11.410693168640137 0.93365615606307983 -0.18163661658763885 -0.30869776010513306 101 99 101 0.81657159328460693
8.0173463821411133 -1.014752984046936 17.594039916992188 -0.99059885740280151 0.10002006590366364 -0.09332653135061264 255 255 254 0.96982359886169434
7.8959598541259766 -0.93737024068832397 17.43504524230957 -0.99040287733078003 0.099612519145011902 -0.095809444785118103 255 255 255 0.8607938289642334
8.058323860168457 -1.0088121891021729 17.653589248657227 -0.99056261777877808 -0.084405705332756042 -0.10798804461956024 255 255 254 0.97335547208786011
8.058323860168457 -1.0088121891021729 17.653589248657227 -0.99056261777877808 -0.084405705332756042 -0.10798804461956024 255 255 254 0.97335547208786011
8.058323860168457 -1.0088121891021729 17.653589248657227 -0.99056261777877808 -0.084405705332756042 -0.10798804461956024 255 255 254 0.97335547208786011
8.4816408157348633 -1.0618034601211548 18.166797637939453 -0.99203145503997803 0.093914523720741272 -0.08398592472076416 255 255 254 0.84343945980072021
8.2795476913452148 -0.92778265476226807 17.91297721862793 -0.98871082067489624 -0.090521171689033508 -0.1194019690155983 255 255 253 0.88066750764846802
8.2752494812011719 -0.92769211530685425 17.905838012695312 -0.99230271577835083 -0.076945319771766663 -0.097029596567153931 255 255 253 0.87610852718353271
-2.6914925575256348 -0.28831115365028381 11.252883911132812 0.92044550180435181 -0.0096467696130275726 -0.39075174927711487 246 241 237 0.71854305267333984
-2.7637996673583984 -0.28412505984306335 11.394857406616211 -0.66383278369903564 0.25430211424827576 -0.70331817865371704 213 205 195 0.77966749668121338
-2.6398236751556396 -0.28121930360794067 11.498740196228027 0.8853384256362915 0.3341805636882782 -0.32326331734657288 107 112 105 0.84335631132125854
-2.5626513957977295 -0.25931081175804138 11.598589897155762 0.93131345510482788 0.20317800343036652 -0.30228134989738464 66 60 63 0.84514737129211426
-2.6361801624298096 -0.19252133369445801 11.26256275177002 0.8596537709236145 0.0078818602487444878 -0.51081627607345581 228 233 230 0.79832541942596436
-2.6124250888824463 -0.20846885442733765 11.528597831726074 0.90132194757461548 0.052435290068387985 -0.42996436357498169 52 57 59 0.81370455026626587
-2.6103689670562744 -0.20092956721782684 11.535579681396484 0.940654456615448 0.059072110801935196 -0.33418503403663635 53 57 58 0.80924797058105469
-2.6103689670562744 -0.20092956721782684 11.535579681396484 0.940654456615448 0.059072110801935196 -0.33418503403663635 64 69 68 0.80924797058105469
-2.6415359973907471 -0.1560601145029068 11.070277214050293 0.95746916532516479 0.0049544987268745899 -0.28849312663078308 251 250 244 0.80417263507843018
-2.5952625274658203 -0.1365104615688324 11.585123062133789 0.71564602851867676 0.59878593683242798 -0.35959163308143616 56 62 67 0.75488436222076416
-2.6215455532073975 -0.13952474296092987 11.829630851745605 0.94548964500427246 0.1234448105096817 -0.30134814977645874 58 65 69 0.73353254795074463
-2.6660275459289551 -0.096579737961292267 11.337569236755371 0.94928687810897827 0.11701852828264236 -0.29182371497154236 244 248 248 0.7928241491317749
-2.6398818492889404 -0.094306968152523041 11.249673843383789 0.88343900442123413 0.060569055378437042 -0.46461468935012817 246 249 246 0.8089524507522583
-2.6420004367828369 -0.094382651150226593 11.258701324462891 0.88784092664718628 0.066782981157302856 -0.45527851581573486 245 248 246 0.7587730884552002
-2.5614728927612305 -0.057873271405696869 11.201559066772461 0.83088922500610352 -0.19429422914981842 -0.52141433954238892 192 199 200 0.79067891836166382
-2.429304838180542 0.048039194196462631 11.28636360168457 0.9055517315864563 -0.11950180679559708 -0.40705686807632446 49 60 68 0.78850990533828735
-2.4494879245758057 0.55447036027908325 11.739243507385254 0.93760383129119873 -0.16060416400432587 -0.30839166045188904 98 96 83 0.77632582187652588
-2.4139735698699951 0.6532444953918457 11.560667037963867 0.94853097200393677 -0.062409769743680954 -0.31047391891479492 87 89 71 0.76512688398361206
-2.5175778865814209 -0.021741049364209175 11.621837615966797 0.91294366121292114 -0.26018908619880676 -0.31438115239143372 196 198 189 0.72328126430511475
-2.4129083156585693 0.49754762649536133 11.770671844482422 0.88877981901168823 -0.12164226174354553 -0.44189777970314026 172 187 179 0.77309834957122803
-2.4615614414215088 0.59427785873413086 11.472930908203125 0.90550774335861206 -0.29755774140357971 -0.30251461267471313 73 75 54 0.8070296049118042
-2.4371380805969238 0.56692445278167725 11.652193069458008 0.9429355263710022 -0.12486778944730759 -0.30867540836334229 75 71 59 0.74404078722000122
-2.6739764213562012 0.19006626307964325 11.66810417175293 0.92477768659591675 -0.23707741498947144 -0.29762473702430725 24 27 31 0.88865429162979126
-2.6739764213562012 0.19006626307964325 11.66810417175293 0.92477768659591675 -0.23707741498947144 -0.29762473702430725 24 27 31 0.88865429162979126
-2.6739764213562012 0.19006626307964325 11.66810417175293 0.92477768659591675 -0.23707741498947144 -0.29762473702430725 24 27 31 0.88865429162979126
-2.421367883682251 0.65226441621780396 11.599527359008789 0.93172764778137207 -0.13897697627544403 -0.33551296591758728 81 81 58 0.76155233383178711
