ply
format ascii 1.0
element vertex 319
property float x
property float y
property float z
property float nx
property float ny
property float nz
property uchar diffuse_red
property uchar diffuse_green
property uchar diffuse_blue
property float quality
end_header
5.3364477157592773 1.0318936109542847 22.602426528930664 -0.17075625061988831 -0.31684622168540955 -0.93297964334487915 21 25 33 0.96307182312011719
5.3330984115600586 1.0676147937774658 22.60407829284668 -0.47063517570495605 -0.75140941143035889 -0.46247851848602295 26 32 40 0.95514398813247681
5.3366637229919434 1.0385265350341797 22.644908905029297 0.057326048612594604 -0.7529900074005127 -0.65553009510040283 21 26 33 0.96434676647186279
5.3330984115600586 1.0676147937774658 22.60407829284668 -0.47063517570495605 -0.75140941143035889 -0.46247851848602295 26 32 40 0.95514398813247681
5.5158500671386719 1.0624924898147583 22.690078735351562 0.10684941709041595 -0.80209261178970337 -0.58756345510482788 25 31 38 0.97817814350128174
5.4786825180053711 1.0160970687866211 22.126544952392578 -0.41587188839912415 -0.65446990728378296 -0.63144266605377197 29 37 46 0.9594455361366272
5.4083223342895508 0.95025932788848877 21.863618850708008 -0.72159278392791748 -0.10085150599479675 -0.68493270874023438 22 29 35 0.92280673980712891
5.4082198143005371 1.0152266025543213 21.880325317382812 -0.70798176527023315 -0.020524635910987854 -0.70593243837356567 35 44 53 0.96253782510757446
5.4933886528015137 1.0053706169128418 22.157501220703125 -0.49248459935188293 -0.60749924182891846 -0.62322032451629639 26 33 41 0.94752484560012817
5.4128608703613281 0.98422366380691528 21.846969604492188 -0.70422244071960449 -0.12771503627300262 -0.69839799404144287 29 37 45 0.94370782375335693
5.4933886528015137 1.0053706169128418 22.157501220703125 -0.49248459935188293 -0.60749924182891846 -0.62322032451629639 26 33 41 0.94752484560012817
5.4128608703613281 0.98422366380691528 21.846969604492188 -0.70422244071960449 -0.12771503627300262 -0.69839799404144287 29 37 45 0.94370782375335693
5.4128608703613281 0.98422366380691528 21.846969604492188 -0.70422244071960449 -0.12771503627300262 -0.69839799404144287 29 37 45 0.94370782375335693
5.4313440322875977 0.98526215553283691 21.804216384887695 -0.56071442365646362 -0.36799216270446777 -0.74174195528030396 36 47 54 0.94182872772216797
5.532069206237793 0.98997783660888672 21.857334136962891 -0.069837041199207306 0.78845101594924927 -0.61112010478973389 36 44 54 0.96668326854705811
2.8569908142089844 0.44331821799278259 15.250733375549316 -0.073253393173217773 -0.88757628202438354 -0.45479920506477356 20 21 22 0.86533862352371216
2.8683726787567139 0.45549392700195312 15.203972816467285 -0.57199907302856445 0.06216084212064743 -0.81789547204971313 31 31 29 0.95526319742202759
2.9413814544677734 0.46044614911079407 15.244560241699219 -0.14271664619445801 0.44353803992271423 -0.88481980562210083 71 67 59 0.91936248540878296
2.9821293354034424 0.46063163876533508 15.239412307739258 -0.091651856899261475 0.31949448585510254 -0.94314539432525635 41 32 36 0.97237813472747803
2.9692714214324951 0.4577922523021698 15.212000846862793 -0.48420131206512451 0.15917611122131348 -0.86035579442977905 37 29 32 0.9718315601348877
3.0057017803192139 0.45839780569076538 15.207468032836914 0.01240251213312149 -0.8436550498008728 -0.53674226999282837 18 13 13 0.93599098920822144
2.9996762275695801 0.45648747682571411 15.202548027038574 -0.05138840526342392 -0.87205636501312256 -0.48670008778572083 19 14 14 0.94539844989776611
3.0033638477325439 0.45824381709098816 15.197902679443359 -0.95391780138015747 0.15340809524059296 -0.25788909196853638 17 13 12 0.88795244693756104
-9.6789207458496094 1.294704794883728 23.439002990722656 0.59743523597717285 -0.30548250675201416 -0.74145239591598511 50 58 60 0.98973095417022705
-9.609522819519043 1.2973974943161011 23.494291305541992 0.32858097553253174 0.268483966588974 -0.90551137924194336 107 98 123 0.98488432168960571
-9.5721054077148438 1.3451876640319824 23.564537048339844 -0.044774569571018219 0.60204035043716431 -0.79720920324325562 192 203 189 0.98459243774414062
-9.4392185211181641 1.3269782066345215 23.499786376953125 0.11870406568050385 -0.63610184192657471 -0.76241976022720337 55 64 59 0.9815753698348999
-9.2365045547485352 1.317992091178894 23.500339508056641 0.63579362630844116 -0.37423193454742432 -0.67506808042526245 25 23 29 0.97347480058670044
-9.1781330108642578 1.3459758758544922 23.551591873168945 0.83485555648803711 -0.27191376686096191 -0.47862204909324646 48 49 52 0.9724123477935791
-9.1087350845336914 1.3502494096755981 23.588712692260742 -0.029565174132585526 0.59617632627487183 -0.80230897665023804 28 29 32 0.97047632932662964
-9.0988655090332031 1.353413462638855 23.59412956237793 0.20170325040817261 -0.14961820840835571 -0.96795153617858887 27 28 31 0.94501191377639771
-9.0960359573364258 1.3523924350738525 23.617462158203125 0.032901860773563385 0.65477585792541504 -0.75510668754577637 27 28 31 0.95796704292297363
-8.8085289001464844 1.3651784658432007 24.019062042236328 0.98862266540527344 -0.14017075300216675 -0.054566513746976852 21 22 25 0.74324750900268555
-8.5219316482543945 1.3621820211410522 23.694431304931641 0.99479383230209351 -0.098205655813217163 -0.027219820767641068 20 20 22 0.80539858341217041
-8.1248102188110352 1.2865852117538452 23.764444351196289 0.082823798060417175 0.62765705585479736 -0.77407157421112061 23 23 26 0.83883154392242432
-7.8680224418640137 1.2861202955245972 23.736164093017578 0.52391225099563599 0.74360489845275879 -0.4154130220413208 23 23 27 0.81007778644561768
-7.8680224418640137 1.2861202955245972 23.736164093017578 0.52391225099563599 0.74360489845275879 -0.4154130220413208 23 23 27 0.81007778644561768
-7.5988082885742188 1.3375176191329956 23.818208694458008 0.16933578252792358 -0.32285666465759277 -0.93117612600326538 21 20 23 0.94757652282714844
-7.5900506973266602 1.3553528785705566 23.881423950195312 0.02183506079018116 -0.26530718803405762 -0.96391671895980835 22 21 24 0.9434468150138855
-7.4448633193969727 1.3533594608306885 23.842369079589844 0.47728878259658813 -0.23291149735450745 -0.84731793403625488 31 29 35 0.9833599328994751
-7.4726061820983887 1.2991282939910889 23.827030181884766 0.59554392099380493 -0.14454148709774017 -0.79021221399307251 32 32 35 0.98155719041824341
-7.4523777961730957 1.335602879524231 23.820045471191406 0.46137309074401855 -0.26201978325843811 -0.84763234853744507 30 28 33 0.98498916625976562
-7.3835029602050781 1.3527240753173828 23.862619400024414 0.50105458498001099 -0.35385489463806152 -0.78976649045944214 89 79 95 0.99061626195907593
-7.3957810401916504 1.2957391738891602 23.81695556640625 0.69643944501876831 -0.081768639385700226 -0.71294182538986206 50 46 56 0.99037092924118042
-7.3531675338745117 1.2988818883895874 23.871818542480469 0.54018080234527588 -0.065245345234870911 -0.83901596069335938 130 134 143 0.98156768083572388
-7.307098388671875 1.3248221874237061 23.905801773071289 0.5949406623840332 -0.34013763070106506 -0.72825270891189575 113 115 127 0.95495837926864624
-7.2030878067016602 1.3353667259216309 23.911901473999023 0.60482406616210938 0.58909821510314941 -0.53586488962173462 183 199 201 0.92512506246566772
-7.125495433807373 1.3444290161132812 23.896524429321289 0.11059644818305969 0.043469138443470001 -0.99291431903839111 170 183 185 0.96788078546524048
-7.0229296684265137 1.3533891439437866 23.89900016784668 -0.33171799778938293 0.13711370527744293 -0.93336105346679688 86 96 97 0.98628783226013184
-6.9643526077270508 1.3183687925338745 23.913806915283203 -0.25666236877441406 -0.67537271976470947 -0.69137269258499146 52 58 56 0.98446834087371826
-6.9406299591064453 1.3468554019927979 23.940235137939453 0.80583781003952026 -0.011768867261707783 -0.59201937913894653 37 40 40 0.9800947904586792
-6.9764480590820312 1.3194185495376587 24.017023086547852 0.87048578262329102 -0.14763654768466949 -0.46952980756759644 38 40 41 0.98087221384048462
-6.9764480590820312 1.3194185495376587 24.017023086547852 0.87048578262329102 -0.14763654768466949 -0.46952980756759644 38 40 41 0.98087221384048462
-6.9362998008728027 1.3082220554351807 24.014368057250977 0.96500599384307861 -0.10180836170911789 -0.24165758490562439 28 30 31 0.98292410373687744
-6.7549209594726562 1.3059676885604858 23.762844085693359 0.95630466938018799 -0.065116278827190399 -0.28502887487411499 20 21 22 0.93694382905960083
-6.7617096900939941 1.3099095821380615 23.794496536254883 0.97693413496017456 -0.15269388258457184 -0.14927880465984344 18 19 20 0.94238978624343872
-6.812220573425293 1.3322933912277222 24.152870178222656 0.97910845279693604 -0.14192000031471252 -0.1456209123134613 13 13 15 0.96163076162338257
-6.7955484390258789 1.5337669849395752 25.959011077880859 0.96008837223052979 -0.16513025760650635 -0.22574788331985474 208 205 189 0.97296202182769775
-6.7127509117126465 1.5147553682327271 26.005325317382812 0.96437954902648926 -0.10525961220264435 -0.24267803132534027 196 191 173 0.93836468458175659
-6.7375683784484863 1.542622447013855 25.941061019897461 0.94986504316329956 -0.18293496966362 -0.25355702638626099 208 206 194 0.96118265390396118
-6.329707145690918 1.4983402490615845 25.559152603149414 -0.20717586576938629 -0.81434255838394165 -0.54214781522750854 205 204 191 0.93630325794219971
-6.323662281036377 1.4886311292648315 25.81483268737793 0.82648658752441406 -0.22900334000587463 -0.51427382230758667 207 211 199 0.86470657587051392
-6.3999142646789551 1.543795108795166 25.909063339233398 0.94665735960006714 -0.18630759418010712 -0.26292473077774048 207 208 199 0.88564115762710571
-6.2556090354919434 1.4979307651519775 25.976634979248047 0.92364352941513062 -0.11022984981536865 -0.36705833673477173 196 198 187 0.92300212383270264
-6.2723946571350098 1.4745240211486816 26.062589645385742 0.82661169767379761 -0.29697003960609436 -0.47803965210914612 189 186 172 0.86340993642807007
-6.1096000671386719 1.5158522129058838 25.789024353027344 -0.45925560593605042 -0.33965384960174561 -0.82080423831939697 207 213 208 0.93088042736053467
-6.0081887245178223 1.51576828956604 25.731761932373047 -0.38933736085891724 0.44416850805282593 -0.80692678689956665 204 203 191 0.9706844687461853
-6.1687188148498535 1.5469282865524292 26.088844299316406 0.015200888738036156 0.74082791805267334 -0.67152291536331177 207 208 199 0.95477384328842163
-5.9240026473999023 1.4813685417175293 26.098764419555664 0.67001944780349731 0.4792829155921936 -0.56688791513442993 207 204 191 0.92558443546295166
-5.8421545028686523 1.5224443674087524 25.835515975952148 0.042542044073343277 0.3936455249786377 -0.91827738285064697 168 163 152 0.97002089023590088
-5.6601953506469727 1.4412186145782471 25.640951156616211 0.012339212000370026 0.71016907691955566 -0.70392310619354248 158 154 140 0.96906614303588867
-5.687201976776123 1.5648514032363892 26.407793045043945 0.91673010587692261 -0.24445441365242004 -0.31598755717277527 150 151 147 0.98655176162719727
-4.4383101463317871 1.2261883020401001 22.530939102172852 0.92966514825820923 -0.2118687629699707 -0.3013874888420105 139 138 136 0.98641514778137207
-4.480039119720459 1.2034852504730225 22.537014007568359 0.91117709875106812 -0.22458386421203613 -0.34542500972747803 145 144 143 0.98318034410476685
-4.3355002403259277 1.3832013607025146 24.30964469909668 0.84965580701828003 -0.42484146356582642 -0.31240180134773254 133 131 128 0.91216230392456055
-4.3568029403686523 1.3542940616607666 24.196817398071289 0.89706671237945557 -0.36071828007698059 -0.25525203347206116 128 128 126 0.94030153751373291
-4.2210702896118164 1.3745263814926147 24.285541534423828 0.9204060435295105 -0.28884792327880859 -0.26347607374191284 139 136 133 0.92381614446640015
-4.266181468963623 1.394200325012207 24.461898803710938 0.77638489007949829 -0.56436872482299805 -0.28056079149246216 140 137 134 0.93893122673034668
-4.3444352149963379 1.3355379104614258 24.668296813964844 0.93118906021118164 -0.24995808303356171 -0.26534479856491089 131 128 125 0.90889400243759155
-4.2394824028015137 1.3416625261306763 24.437797546386719 0.90975874662399292 -0.31963992118835449 -0.2648952305316925 135 133 130 0.9099578857421875
-4.0789299011230469 1.3517940044403076 24.108310699462891 0.92645448446273804 -0.25998586416244507 -0.27219396829605103 140 139 135 0.82897800207138062
-4.2535710334777832 1.3991501331329346 24.918394088745117 0.75643283128738403 -0.22393552958965302 -0.61454218626022339 142 142 138 0.94715666770935059
-3.5353033542633057 1.3506309986114502 24.096738815307617 -0.24072450399398804 0.62371587753295898 -0.7436600923538208 141 140 136 0.96083992719650269
-3.5937173366546631 1.3222846984863281 24.360906600952148 -0.15040850639343262 0.74674957990646362 -0.64787530899047852 144 143 138 0.93669712543487549
-3.3752098083496094 1.3148823976516724 23.818595886230469 0.017593605443835258 0.78554034233093262 -0.61856025457382202 133 132 129 0.95972877740859985
-3.4141716957092285 1.3360978364944458 24.116765975952148 0.31117737293243408 0.74699938297271729 -0.58750373125076294 134 133 130 0.80220711231231689
-3.4846885204315186 1.3684337139129639 24.360311508178711 0.0067752916365861893 0.77463221549987793 -0.63237571716308594 133 131 128 0.96028608083724976
-3.5139617919921875 1.3272343873977661 24.415348052978516 0.35669514536857605 0.7466699481010437 -0.561473548412323 142 141 137 0.86466151475906372
-3.5890474319458008 1.4097075462341309 24.908840179443359 -0.20490242540836334 0.72463959455490112 -0.65796089172363281 133 133 129 0.96259063482284546
-3.6226398944854736 1.3694832324981689 24.993228912353516 -0.29526695609092712 0.61387026309967041 -0.73210710287094116 141 140 136 0.95835208892822266
-3.2289979457855225 1.291553258895874 23.577499389648438 0.23552067577838898 0.74682605266571045 -0.62191712856292725 132 131 127 0.96505749225616455
-3.2880492210388184 1.3183904886245728 24.106252670288086 0.31233787536621094 0.58405596017837524 -0.74921530485153198 130 130 127 0.93801963329315186
-3.2603611946105957 1.28844153881073 23.659496307373047 0.050387348979711533 0.72815209627151489 -0.68356108665466309 133 132 128 0.97435200214385986
-3.207789421081543 1.3222247362136841 24.031518936157227 0.0051153115928173065 0.78781431913375854 -0.61589169502258301 124 124 121 0.96790659427642822
-3.2452609539031982 1.3487800359725952 23.990701675415039 -0.21135103702545166 0.65553176403045654 -0.72498899698257446 127 126 124 0.908439040184021
-3.4386770725250244 1.3511577844619751 24.939300537109375 -0.29489943385124207 0.5621604323387146 -0.77266424894332886 132 131 128 0.79874694347381592
-3.3347413539886475 1.3605657815933228 24.650074005126953 -0.01859833300113678 0.72662347555160522 -0.68678414821624756 128 128 125 0.97103416919708252
-3.2452609539031982 1.3487800359725952 23.990701675415039 -0.21135103702545166 0.65553176403045654 -0.72498899698257446 127 126 124 0.908439040184021
-3.2599706649780273 1.3502198457717896 24.250511169433594 -0.2110159695148468 0.66233283281326294 -0.71887940168380737 126 126 122 0.91384059190750122
-3.237708568572998 1.3739080429077148 24.532846450805664 0.062412984669208527 0.56221431493759155 -0.82463312149047852 126 125 123 0.94791573286056519
-3.1428306102752686 1.3506665229797363 24.017417907714844 0.18197695910930634 -0.87212079763412476 -0.45419126749038696 118 119 117 0.91316670179367065
-3.183734655380249 1.3238816261291504 24.560186386108398 -0.016095757484436035 -0.80065596103668213 -0.59890824556350708 128 127 126 0.91269087791442871
-3.1630315780639648 1.3349878787994385 24.461990356445312 0.29902958869934082 0.069333732128143311 -0.9517216682434082 128 127 125 0.89715123176574707
-3.152385950088501 1.333185076713562 24.641252517700195 -0.047428276389837265 -0.32768344879150391 -0.94359636306762695 127 127 124 0.86427462100982666
-3.1099979877471924 1.3368197679519653 24.671407699584961 -0.021079724654555321 -0.87719005346298218 -0.47968029975891113 126 125 122 0.91927486658096313
0.86053669452667236 1.4451593160629272 25.561563491821289 -0.52122873067855835 -0.027062943205237389 -0.85298776626586914 108 104 101 0.97538626194000244
0.86295872926712036 1.4071437120437622 25.674243927001953 -0.56872797012329102 -0.54244571924209595 -0.61830508708953857 91 91 89 0.95017993450164795
0.84254741668701172 1.4399560689926147 25.788679122924805 -0.31342503428459167 -0.034375585615634918 -0.9489905834197998 107 104 100 0.97290819883346558
0.81997281312942505 1.4466725587844849 25.775077819824219 -0.15078577399253845 0.0038101482205092907 -0.98855912685394287 107 103 99 0.96456503868103027
0.9064558744430542 1.4002705812454224 25.604335784912109 -0.62539184093475342 -0.51857233047485352 -0.58306759595870972 76 75 76 0.96702861785888672
0.95474052429199219 1.3974517583847046 25.561420440673828 -0.57464843988418579 -0.67979645729064941 -0.45569270849227905 62 63 63 0.97587579488754272
0.90226686000823975 1.4365253448486328 25.477832794189453 -0.52679389715194702 -0.06427079439163208 -0.84755963087081909 105 100 97 0.97595834732055664
1.1001219749450684 1.4036004543304443 25.435413360595703 -0.73666495084762573 -0.099124342203140259 -0.66895371675491333 64 64 53 0.96029210090637207
1.1397358179092407 1.3748646974563599 25.439546585083008 -0.75829565525054932 0.081845231354236603 -0.64675271511077881 52 56 56 0.96361535787582397
1.1797568798065186 1.4036703109741211 25.403444290161133 -0.85633909702301025 0.095030650496482849 -0.50759482383728027 86 87 80 0.94047385454177856
1.2416770458221436 1.4183573722839355 25.355117797851562 -0.82707887887954712 -0.19219191372394562 -0.52820730209350586 112 110 104 0.95279604196548462
1.1908749341964722 1.4354259967803955 25.316888809204102 -0.77644646167755127 -0.17037324607372284 -0.60671555995941162 76 73 65 0.95048624277114868
1.2389408349990845 1.4197380542755127 25.334531784057617 -0.79735708236694336 -0.21733009815216064 -0.56301820278167725 116 114 108 0.95450478792190552
1.2389408349990845 1.4197380542755127 25.334531784057617 -0.79735708236694336 -0.21733009815216064 -0.56301820278167725 116 114 108 0.95450478792190552
1.2165470123291016 1.2939136028289795 24.051952362060547 0.32440406084060669 0.70328372716903687 -0.63257735967636108 56 55 51 0.97923451662063599
1.201204776763916 1.3400863409042358 24.36024284362793 -0.8407403826713562 -0.17867706716060638 -0.51110666990280151 82 79 77 0.96178102493286133
1.239646315574646 1.2602024078369141 23.788808822631836 0.4504791796207428 0.31095367670059204 -0.83688497543334961 35 37 34 0.96812146902084351
1.2735123634338379 1.2418071031570435 24.01231575012207 0.54193979501724243 0.36070418357849121 -0.75907433032989502 32 31 26 0.84851640462875366
1.3010596036911011 1.2590967416763306 23.812828063964844 0.55320727825164795 0.14308625459671021 -0.8206632137298584 41 40 34 0.95792335271835327
1.2809755802154541 1.2587811946868896 23.429304122924805 -0.88283520936965942 -0.098479300737380981 -0.45924285054206848 38 38 31 0.96423101425170898
1.351994514465332 1.230038046836853 23.789722442626953 0.6908147931098938 0.32376351952552795 -0.64649224281311035 37 37 30 0.94500488042831421
1.3112125396728516 1.2522826194763184 23.781707763671875 0.56797176599502563 0.17820921540260315 -0.80352336168289185 37 37 30 0.93995374441146851
1.3128727674484253 1.2637093067169189 23.881755828857422 -0.79869955778121948 -0.1756032407283783 -0.57553684711456299 44 42 35 0.95228952169418335
1.3626168966293335 1.2462023496627808 23.213375091552734 -0.85716325044631958 -0.27789556980133057 -0.43364182114601135 28 26 21 0.86736142635345459
1.4009894132614136 1.229644775390625 23.166093826293945 -0.76776665449142456 -0.35007098317146301 -0.53664207458496094 30 27 23 0.98054951429367065
1.5644636154174805 1.1596581935882568 22.973367691040039 -0.63949668407440186 -0.40139982104301453 -0.65568453073501587 50 53 37 0.93432313203811646
1.6271016597747803 1.1875145435333252 22.862869262695312 -0.84016412496566772 -0.40368771553039551 -0.36216077208518982 40 40 29 0.9547153115272522
1.5948594808578491 1.1513458490371704 22.922134399414062 -0.58493316173553467 -0.49287226796150208 -0.64415079355239868 46 52 36 0.91786551475524902
1.693204402923584 1.1442326307296753 22.852470397949219 -0.22053253650665283 0.21467927098274231 -0.9514610767364502 31 37 25 0.90102815628051758
1.7070877552032471 1.1787310838699341 22.805227279663086 -0.57378268241882324 -0.15913087129592896 -0.80339950323104858 40 45 31 0.83534300327301025
1.7604367733001709 1.1388856172561646 22.861478805541992 0.040327876806259155 -0.84057337045669556 -0.54019451141357422 32 38 24 0.90904766321182251
1.8847115039825439 1.1562504768371582 22.733295440673828 -0.023570220917463303 -0.90407800674438477 -0.42671704292297363 29 30 22 0.92694288492202759
1.8171104192733765 1.1467359066009521 22.741596221923828 0.27693477272987366 -0.834422767162323 -0.47649312019348145 38 39 29 0.93596720695495605
1.9150892496109009 1.1559470891952515 22.584589004516602 -0.62185066938400269 -0.69935065507888794 -0.35243493318557739 28 29 20 0.9530065655708313
1.8804526329040527 1.1838490962982178 22.645627975463867 -0.4276759922504425 -0.82183253765106201 -0.37640991806983948 18 20 14 0.9416813850402832
1.935289740562439 1.1438769102096558 22.659791946411133 -0.48342257738113403 -0.79521298408508301 -0.36597675085067749 32 35 23 0.94725126028060913
1.9331707954406738 1.1253886222839355 22.655097961425781 -0.76808613538742065 -0.23171254992485046 -0.59695309400558472 33 38 25 0.95583277940750122
1.9576157331466675 1.1738475561141968 22.524669647216797 -0.0066567361354827881 -0.78898525238037109 -0.61437618732452393 41 45 30 0.93305552005767822
1.9894049167633057 1.1313306093215942 22.612382888793945 -0.48316454887390137 -0.79542326927185059 -0.36586037278175354 49 56 36 0.91256946325302124
2.0000927448272705 1.1479785442352295 22.490711212158203 -0.4098847508430481 -0.83272230625152588 -0.37224733829498291 39 44 30 0.89283579587936401
2.0103075504302979 1.1490277051925659 22.389177322387695 -0.36799702048301697 -0.85084277391433716 -0.37502634525299072 34 34 24 0.86007237434387207
2.1846048831939697 1.1610912084579468 22.447893142700195 -0.80890250205993652 -0.18272064626216888 -0.55882894992828369 31 37 26 0.82963144779205322
2.1704723834991455 1.149985671043396 22.398651123046875 -0.11451652646064758 -0.32038667798042297 -0.94033944606781006 31 37 26 0.83973580598831177
2.3138930797576904 1.1029956340789795 22.47596549987793 0.31797647476196289 -0.76574409008026123 -0.55904126167297363 31 34 22 0.89853274822235107
2.3512020111083984 1.1129086017608643 22.436513900756836 -0.27258667349815369 -0.60994166135787964 -0.74408847093582153 27 33 22 0.9455331563949585
2.4989926815032959 1.1403512954711914 22.298826217651367 -0.89987456798553467 0.026958514004945755 -0.43531498312950134 28 32 24 0.91364872455596924
2.5291590690612793 1.1480939388275146 22.422208786010742 0.28117755055427551 -0.81057906150817871 -0.51371264457702637 32 35 26 0.95616233348846436
2.5624566078186035 1.1021469831466675 22.185634613037109 -0.82601237297058105 -0.20544946193695068 -0.5248752236366272 24 27 21 0.93308740854263306
2.6260337829589844 1.1259760856628418 22.163089752197266 -0.88104778528213501 -0.18405863642692566 -0.43574902415275574 15 17 15 0.94985717535018921
2.6189653873443604 1.0938087701797485 22.250627517700195 -0.82056885957717896 -0.21127547323703766 -0.53106439113616943 19 20 17 0.94658780097961426
2.7046928405761719 1.1188312768936157 22.293609619140625 -0.79400372505187988 -0.18815778195858002 -0.57806122303009033 13 14 14 0.95596069097518921
2.6450586318969727 1.1072859764099121 22.086454391479492 -0.64896351099014282 -0.61456972360610962 -0.44849807024002075 12 14 13 0.92922896146774292
2.6746859550476074 1.0902168750762939 21.983709335327148 0.041189204901456833 0.77677327394485474 -0.62843197584152222 10 12 12 0.94611406326293945
2.9685704708099365 1.0894030332565308 22.287448883056641 -0.8773350715637207 -0.28185537457466125 -0.38838225603103638 10 12 11 0.7718692421913147
3.0455636978149414 1.1279923915863037 22.11512565612793 -0.14689992368221283 -0.2807726263999939 -0.94846564531326294 11 12 13 0.77070534229278564
3.463120698928833 1.1130239963531494 22.443017959594727 -0.89602488279342651 -0.25753149390220642 -0.36168649792671204 11 13 13 0.97814363241195679
3.4772677421569824 1.117619514465332 22.435049057006836 -0.92449307441711426 -0.16342611610889435 -0.34439012408256531 11 13 12 0.9839012622833252
3.829667329788208 1.09159255027771 22.01310920715332 -0.96647351980209351 -0.095724202692508698 -0.23825624585151672 23 29 35 0.86146581172943115
3.9256701469421387 1.082612156867981 22.432746887207031 0.17180804908275604 -0.7608264684677124 -0.62579953670501709 21 26 32 0.92154496908187866
3.8609662055969238 1.0993185043334961 21.897712707519531 -0.84754157066345215 -0.11637433618307114 -0.51781296730041504 24 29 35 0.81210541725158691
4.4482951164245605 1.1449873447418213 23.119388580322266 -0.87717372179031372 0.10324673354625702 -0.46894174814224243 24 29 35 0.9535679817199707
4.4504871368408203 1.1654849052429199 23.00501823425293 -0.69737517833709717 0.075312033295631409 -0.71273845434188843 24 29 35 0.95093274116516113
4.5009651184082031 1.1011348962783813 22.695722579956055 -0.96258771419525146 -0.049487750977277756 -0.26641306281089783 22 28 34 0.92617893218994141
4.5373902320861816 1.1422665119171143 22.655929565429688 -0.95730686187744141 0.18115735054016113 -0.22526814043521881 23 28 35 0.92183732986450195
4.5332307815551758 1.1401245594024658 22.636640548706055 -0.9647672176361084 0.14567588269710541 -0.21909511089324951 23 29 35 0.92023354768753052
4.5459156036376953 1.0982456207275391 22.58607292175293 -0.96223187446594238 0.14501725137233734 -0.2303907722234726 23 29 35 0.9364737868309021
4.9801855087280273 1.1732068061828613 23.449499130249023 -0.74166417121887207 -0.077835984528064728 -0.66624003648757935 22 27 35 0.93766844272613525
5.0073556900024414 1.1783252954483032 23.371025085449219 -0.85667175054550171 -0.27744147181510925 -0.43490198254585266 23 28 35 0.96123522520065308
5.2140641212463379 1.163913369178772 22.779209136962891 -0.97793865203857422 0.0311107337474823 -0.20656278729438782 28 36 44 0.95308572053909302
5.1653304100036621 1.1635586023330688 22.638025283813477 -0.7685888409614563 -0.58369052410125732 -0.26187103986740112 29 37 46 0.94650673866271973
5.2128076553344727 1.1415152549743652 22.574039459228516 -0.70729893445968628 -0.64834767580032349 -0.28173297643661499 27 35 44 0.93238168954849243
5.2611713409423828 1.1407675743103027 22.703701019287109 -0.86722147464752197 -0.067917250096797943 -0.49326890707015991 25 33 42 0.95271563529968262
5.2623300552368164 1.1241582632064819 22.507379531860352 -0.83629250526428223 -0.30204826593399048 -0.45758256316184998 29 38 47 0.92966955900192261
5.2909932136535645 1.1349539756774902 22.48695182800293 -0.6756165623664856 -0.36480993032455444 -0.64066845178604126 30 39 49 0.93251752853393555
5.4292821884155273 1.0948960781097412 22.615486145019531 -0.47550094127655029 -0.74440187215805054 -0.4687906801700592 34 43 52 0.96481060981750488
5.3117032051086426 1.1336876153945923 22.446636199951172 -0.13135558366775513 -0.20835061371326447 -0.96919333934783936 32 41 51 0.94044399261474609
5.4051499366760254 1.1347951889038086 22.495254516601562 -0.6590348482131958 -0.41630929708480835 -0.62638628482818604 39 50 60 0.95220237970352173
5.5182480812072754 1.0929298400878906 22.610267639160156 -0.14306703209877014 -0.87559401988983154 -0.46137508749961853 33 42 52 0.97611057758331299
5.4477238655090332 1.1249158382415771 22.440217971801758 -0.19012102484703064 -0.36681950092315674 -0.91065776348114014 43 54 65 0.96089279651641846
5.4261016845703125 1.1100786924362183 22.390762329101562 0.39954054355621338 -0.43338766694068909 -0.80780112743377686 43 54 64 0.9744982123374939
5.4754199981689453 1.0780028104782104 22.386463165283203 0.10732159018516541 -0.83475381135940552 -0.54006308317184448 37 47 57 0.9903225302696228
5.4754199981689453 1.0780028104782104 22.386463165283203 0.10732159018516541 -0.83475381135940552 -0.54006308317184448 37 47 57 0.9903225302696228
5.3905653953552246 1.0930663347244263 22.158178329467773 -0.83049267530441284 0.0034765647724270821 -0.55701863765716553 42 53 64 0.97423022985458374
5.5067849159240723 1.0854495763778687 22.221199035644531 -0.9025084376335144 -0.34233048558235168 -0.26132065057754517 38 48 59 0.97832208871841431
5.4012341499328613 1.0608181953430176 22.04310417175293 -0.45184201002120972 -0.6082909107208252 -0.65254956483840942 39 49 60 0.96983832120895386
5.4258537292480469 1.069118857383728 22.077268600463867 -0.5256926417350769 -0.44549599289894104 -0.72469353675842285 39 49 60 0.96374791860580444
5.4239802360534668 1.0687308311462402 21.834693908691406 -0.65925431251525879 -0.18806245923042297 -0.72802221775054932 40 47 56 0.98483872413635254
5.4729337692260742 1.0396814346313477 21.813163757324219 -0.70063763856887817 -0.016190744936466217 -0.71333366632461548 41 50 59 0.97198289632797241
5.6124954223632812 1.0652074813842773 21.769704818725586 0.013935064896941185 -0.74262094497680664 -0.66956698894500732 37 44 52 0.98614078760147095
2.8964729309082031 0.49035933613777161 15.223122596740723 -0.49527758359909058 0.26276597380638123 -0.82804238796234131 47 48 39 0.96042346954345703
2.8838639259338379 0.49238330125808716 15.226398468017578 -0.14028982818126678 -0.045072164386510849 -0.98908400535583496 38 41 33 0.96636289358139038
2.9333078861236572 0.48916813731193542 15.205291748046875 -0.040734395384788513 0.75753527879714966 -0.65152215957641602 78 75 65 0.9361422061920166
3.0041711330413818 0.49575403332710266 15.248556137084961 0.026562009006738663 0.26709908246994019 -0.96330296993255615 27 25 23 0.95813482999801636
3.0023763179779053 0.48753774166107178 15.18855094909668 -0.01864079013466835 0.29368776082992554 -0.9557197093963623 17 17 15 0.9303586483001709
-9.7066679000854492 1.3549312353134155 23.390956878662109 0.35289517045021057 -0.83586031198501587 -0.42047905921936035 78 71 80 0.99128967523574829
-9.6318340301513672 1.3690465688705444 23.460502624511719 0.48913979530334473 -0.46423891186714172 -0.73839318752288818 109 118 117 0.98540860414505005
-9.6528310775756836 1.3692314624786377 23.455175399780273 0.23503316938877106 -0.87025564908981323 -0.43291404843330383 118 123 125 0.98827242851257324
-9.6692228317260742 1.4387316703796387 23.437437057495117 -0.26911580562591553 -0.52676254510879517 -0.80628645420074463 73 67 75 0.9873620867729187
-9.5952568054199219 1.4384440183639526 23.482738494873047 0.84566217660903931 0.08472655713558197 -0.52695071697235107 109 114 113 0.970619797706604
-9.2987375259399414 1.3848038911819458 23.490554809570312 0.36899581551551819 -0.61283475160598755 -0.69876718521118164 32 35 36 0.97339451313018799
-9.3163766860961914 1.3879902362823486 23.506475448608398 0.063743531703948975 -0.88038110733032227 -0.46996372938156128 34 36 37 0.97962290048599243
-9.2422981262207031 1.4227993488311768 23.53856086730957 0.026221388950943947 -0.2621476948261261 -0.96467149257659912 19 18 20 0.96915793418884277
-9.1312494277954102 1.4241644144058228 23.531024932861328 0.049478296190500259 -0.30692911148071289 -0.95044535398483276 19 19 20 0.9624592661857605
-9.1589679718017578 1.4124135971069336 23.553201675415039 -0.16495436429977417 0.053688913583755493 -0.98483884334564209 24 25 26 0.9706110954284668
-9.0794267654418945 1.4318771362304688 23.591026306152344 -0.073757871985435486 0.58658266067504883 -0.80652368068695068 17 16 18 0.96086549758911133
-9.0839328765869141 1.4230552911758423 23.594722747802734 -0.11256098747253418 0.48975375294685364 -0.86456412076950073 18 17 18 0.96712040901184082
-9.1061649322509766 1.427198052406311 23.587530136108398 -0.16341294348239899 0.40858900547027588 -0.89797061681747437 17 17 17 0.96969997882843018
-9.0839328765869141 1.4230552911758423 23.594722747802734 -0.11256098747253418 0.48975375294685364 -0.86456412076950073 18 17 18 0.96712040901184082
-9.0839328765869141 1.4230552911758423 23.594722747802734 -0.11256098747253418 0.48975375294685364 -0.86456412076950073 18 17 18 0.96712040901184082
-7.9391412734985352 1.3980499505996704 23.678764343261719 -0.37607970833778381 0.41855409741401672 -0.82666593790054321 25 25 27 0.98370110988616943
-8.0108451843261719 1.4579414129257202 23.907978057861328 -0.34404563903808594 0.26855841279029846 -0.8997272253036499 23 21 23 0.99282544851303101
-7.7348613739013672 1.4131597280502319 23.674045562744141 -0.45610833168029785 0.21583613753318787 -0.8633539080619812 25 24 26 0.99175631999969482
-7.6457829475402832 1.3894821405410767 23.762081146240234 -0.44610273838043213 0.19163955748081207 -0.87422353029251099 25 25 27 0.96956729888916016
-7.5588064193725586 1.4062739610671997 23.958681106567383 0.11572493612766266 0.032587982714176178 -0.99274659156799316 22 22 24 0.94268584251403809
-7.559852123260498 1.381564736366272 23.837640762329102 0.31309923529624939 -0.20642232894897461 -0.92701607942581177 22 23 24 0.92767053842544556
-7.5318822860717773 1.4541515111923218 23.959051132202148 -0.42267093062400818 -0.27931255102157593 -0.8621680736541748 18 16 18 0.99539923667907715
-7.4651708602905273 1.417799711227417 23.948848724365234 -0.16852056980133057 0.54408031702041626 -0.82193517684936523 35 30 38 0.99102461338043213
-7.350773811340332 1.4053682088851929 23.869224548339844 0.48505842685699463 -0.36491474509239197 -0.79470479488372803 128 111 130 0.98606902360916138
-7.2927312850952148 1.408610463142395 23.896862030029297 0.14106948673725128 0.072695121169090271 -0.9873272180557251 158 177 170 0.97493165731430054
-7.1674084663391113 1.3904258012771606 23.887546539306641 0.65602278709411621 -0.24115890264511108 -0.7151758074760437 132 132 141 0.95347857475280762
-7.2196445465087891 1.4519492387771606 23.901254653930664 0.11330902576446533 -0.44578436017036438 -0.88793987035751343 157 163 162 0.96725475788116455
-7.2304544448852539 1.378225564956665 23.877655029296875 -0.35905063152313232 -0.17142066359519958 -0.91744077205657959 81 79 86 0.95562231540679932
-7.1516685485839844 1.4520175457000732 23.908784866333008 0.098360911011695862 -0.28157314658164978 -0.95448505878448486 134 145 145 0.96267253160476685
-6.9528732299804688 1.4493004083633423 23.834352493286133 -0.2670930027961731 -0.24199558794498444 -0.93279117345809937 37 38 39 0.98537212610244751
-6.89166259765625 1.4239623546600342 23.820764541625977 0.028061889111995697 -0.46763592958450317 -0.88347560167312622 29 29 30 0.98530089855194092
-6.7504029273986816 1.4347866773605347 23.719978332519531 0.06969577819108963 -0.4313088059425354 -0.89950829744338989 24 24 24 0.98776304721832275
-6.743621826171875 1.3833408355712891 23.782211303710938 0.97325646877288818 -0.18257474899291992 -0.13942247629165649 13 12 14 0.98404985666275024
-6.6099257469177246 1.4451525211334229 23.911062240600586 0.9702608585357666 -0.20001465082168579 -0.13633838295936584 85 82 77 0.98231738805770874
-6.9284152984619141 1.6115127801895142 25.582508087158203 0.036949183791875839 0.67582285404205322 -0.73613733053207397 172 166 151 0.8574402928352356
-6.7800240516662598 1.5526255369186401 25.467739105224609 -0.28742295503616333 0.58818089962005615 -0.75593078136444092 169 164 148 0.96921324729919434
-6.8924846649169922 1.5817140340805054 25.71263313293457 0.0062951948493719101 0.71513199806213379 -0.69896107912063599 167 163 149 0.95092034339904785
-6.8828239440917969 1.5803011655807495 25.653543472290039 -0.21876460313796997 -0.29046180844306946 -0.93154388666152954 168 165 151 0.88243365287780762
-5.9530220031738281 1.4315061569213867 23.771053314208984 -0.067279979586601257 -0.87688732147216797 -0.4759642481803894 180 175 163 0.93537318706512451
-6.6297106742858887 1.5610989332199097 25.608905792236328 0.9505423903465271 -0.23737473785877228 -0.20030540227890015 171 166 152 0.90070974826812744
-6.5304336547851562 1.5856438875198364 25.542581558227539 0.6236681342124939 -0.60184448957443237 -0.4988199770450592 177 171 158 0.89176356792449951
-6.2716588973999023 1.5660619735717773 25.087169647216797 0.9642099142074585 0.081652633845806122 -0.2522544264793396 185 180 166 0.85908937454223633
-6.3411121368408203 1.5858597755432129 25.249000549316406 0.97365748882293701 0.036191068589687347 -0.22512523829936981 186 180 167 0.81053721904754639
-5.7680478096008301 1.446994423866272 24.119186401367188 -0.46015068888664246 -0.36587351560592651 -0.80894869565963745 187 185 174 0.87859988212585449
-5.6980166435241699 1.4440683126449585 24.105251312255859 -0.46111351251602173 -0.37682735919952393 -0.8033527135848999 191 190 180 0.91125273704528809
-5.9026851654052734 1.5303620100021362 25.109537124633789 0.91509807109832764 0.014196500182151794 -0.40298151969909668 185 183 173 0.96033358573913574
-5.9569811820983887 1.5010260343551636 25.120693206787109 0.91849088668823242 -0.043634116649627686 -0.39302748441696167 200 201 193 0.92242693901062012
-5.7664694786071777 1.5248070955276489 24.915231704711914 0.85725361108779907 -0.28513669967651367 -0.42873471975326538 164 158 148 0.96781301498413086
-5.4484143257141113 1.4345401525497437 24.329586029052734 0.65873044729232788 0.60308206081390381 -0.449851393699646 166 163 154 0.96070712804794312
-4.394984245300293 1.2596653699874878 22.364156723022461 0.88368737697601318 -0.41019308567047119 -0.22547346353530884 130 130 127 0.97954255342483521
-4.334434986114502 1.2539036273956299 22.353267669677734 0.95471024513244629 0.14349721372127533 -0.26064705848693848 129 129 125 0.97425466775894165
-4.2597851753234863 1.2761693000793457 22.207542419433594 0.95466947555541992 0.13053491711616516 -0.26751986145973206 126 125 124 0.97513556480407715
-4.6151785850524902 1.400517463684082 23.832862854003906 0.79195219278335571 -0.3209567666053772 -0.5194212794303894 128 128 127 0.91772454977035522
-4.3392667770385742 1.3466732501983643 23.574516296386719 0.91242623329162598 -0.26623404026031494 -0.310802161693573 126 125 122 0.81297814846038818
-4.1535639762878418 1.3754407167434692 23.228530883789062 0.92803525924682617 -0.13566459715366364 -0.34690883755683899 133 132 129 0.93158626556396484
-4.1790037155151367 1.3543503284454346 23.141363143920898 0.45746788382530212 0.74029713869094849 -0.49262934923171997 126 125 122 0.8343205451965332
-4.1821026802062988 1.388378381729126 23.404399871826172 0.91820943355560303 -0.20990127325057983 -0.33590635657310486 133 132 129 0.92149299383163452
-4.1396656036376953 1.3801189661026001 23.426496505737305 0.78170377016067505 -0.39897450804710388 -0.47933140397071838 137 135 131 0.95072066783905029
-4.1542453765869141 1.3433632850646973 23.345458984375 0.93882238864898682 -0.23214660584926605 -0.25440257787704468 129 129 125 0.9429250955581665
-4.148961067199707 1.3894296884536743 24.203855514526367 0.92393988370895386 -0.26256412267684937 -0.27819985151290894 141 139 135 0.91673588752746582
-4.039006233215332 1.4257593154907227 23.900945663452148 0.93168264627456665 -0.22180870175361633 -0.28769534826278687 138 139 136 0.79013979434967041
-4.0477962493896484 1.391160249710083 24.018575668334961 0.92078763246536255 -0.28211864829063416 -0.26936841011047363 138 138 133 0.88037705421447754
-4.0834183692932129 1.4376099109649658 24.180757522583008 0.91449475288391113 -0.26608577370643616 -0.30479133129119873 138 138 134 0.66827976703643799
-3.995755672454834 1.4160408973693848 24.079906463623047 0.9186975359916687 -0.28645548224449158 -0.27191570401191711 141 142 138 0.91391867399215698
-3.8901791572570801 1.4006932973861694 23.945230484008789 0.015388581901788712 0.59665578603744507 -0.8023497462272644 145 145 143 0.84792065620422363
-3.6870734691619873 1.3366624116897583 23.116085052490234 -0.32512888312339783 0.61135745048522949 -0.72147995233535767 142 142 139 0.85223907232284546
-3.9130191802978516 1.4314879179000854 23.952939987182617 0.088081322610378265 -0.63799655437469482 -0.76498496532440186 144 144 141 0.79356217384338379
-3.9130191802978516 1.4314879179000854 23.952939987182617 0.088081322610378265 -0.63799655437469482 -0.76498496532440186 144 144 141 0.79356217384338379
-4.0433287620544434 1.488677978515625 24.608272552490234 0.28005725145339966 -0.72389179468154907 -0.63051456212997437 143 143 139 0.86076080799102783
-3.8567502498626709 1.3749703168869019 24.113908767700195 -0.28313526511192322 0.67614185810089111 -0.68019610643386841 144 144 141 0.91439133882522583
-3.5998919010162354 1.3229004144668579 22.994375228881836 -0.19120925664901733 0.71995538473129272 -0.66716057062149048 141 141 138 0.90031272172927856
-3.7462089061737061 1.4035708904266357 23.54444694519043 0.076399952173233032 -0.52518928050994873 -0.8475489616394043 142 141 138 0.85498631000518799
-3.875178337097168 1.4210810661315918 24.075668334960938 -0.54085588455200195 0.24582140147686005 -0.80439209938049316 142 143 140 0.92862629890441895
-3.8022551536560059 1.430803656578064 23.92454719543457 0.43689686059951782 -0.54178977012634277 -0.71804249286651611 147 147 144 0.91900497674942017
-3.5973982810974121 1.3630905151367188 23.407155990600586 -0.38267749547958374 0.53851044178009033 -0.75070935487747192 134 135 132 0.94435960054397583
-3.309518575668335 1.2817580699920654 22.435218811035156 0.7704998254776001 0.49089348316192627 -0.40663707256317139 130 131 128 0.92026299238204956
-3.4005343914031982 1.2670783996582031 22.715742111206055 0.60777503252029419 0.65726745128631592 -0.44565582275390625 135 136 133 0.92793941497802734
-3.5998632907867432 1.3956897258758545 23.545896530151367 -0.12220637500286102 0.71101146936416626 -0.69247984886169434 134 133 131 0.95696824789047241
-3.4757332801818848 1.3534058332443237 23.751855850219727 0.38069567084312439 -0.61509865522384644 -0.6904524564743042 139 140 137 0.96118253469467163
-3.4860208034515381 1.4042097330093384 23.678976058959961 0.38762521743774414 -0.44426620006561279 -0.8076968789100647 130 130 127 0.92615139484405518
-3.5311777591705322 1.405134916305542 23.663198471069336 0.39145404100418091 -0.45384740829467773 -0.8004913330078125 135 134 133 0.9312627911567688
-3.4827823638916016 1.3934047222137451 23.465984344482422 0.65687566995620728 0.59960281848907471 -0.45715528726577759 127 127 126 0.92194747924804688
-3.4874513149261475 1.3435879945755005 23.425197601318359 0.093959569931030273 0.72342509031295776 -0.68397939205169678 137 136 134 0.93500733375549316
-3.4952988624572754 1.3969089984893799 23.706815719604492 0.85731208324432373 -0.18380069732666016 -0.48086723685264587 131 130 127 0.94070994853973389
-3.4504201412200928 1.396140456199646 23.757299423217773 0.094103679060935974 -0.70028585195541382 -0.70763295888900757 129 128 124 0.95325362682342529
-3.3337898254394531 1.332521915435791 23.599897384643555 0.27867653965950012 0.74280601739883423 -0.60875171422958374 135 133 130 0.96566402912139893
-3.3027467727661133 1.3346726894378662 23.600576400756836 0.25551125407218933 0.74323785305023193 -0.6183134913444519 132 131 129 0.96734434366226196
-3.3282499313354492 1.3838138580322266 23.674224853515625 0.040758628398180008 0.70996463298797607 -0.70305699110031128 126 125 122 0.95218539237976074
-3.2524018287658691 1.3569929599761963 23.635156631469727 -0.15056508779525757 0.64079552888870239 -0.75280231237411499 124 123 121 0.94430398941040039
-3.1928822994232178 1.3883343935012817 23.838081359863281 0.27553978562355042 -0.86411416530609131 -0.42117041349411011 117 115 114 0.93304938077926636
-3.1275079250335693 1.3776663541793823 23.882617950439453 0.088960126042366028 -0.89587348699569702 -0.43531215190887451 112 112 111 0.91667789220809937
-3.0444068908691406 1.3584591150283813 23.825857162475586 0.27319991588592529 -0.7952340841293335 -0.54126197099685669 112 111 109 0.8842204213142395
0.76798880100250244 1.4651751518249512 25.570224761962891 -0.2528681755065918 0.74690711498260498 -0.61496949195861816 107 102 99 0.95321178436279297
0.81459909677505493 1.4643386602401733 25.539041519165039 -0.41868701577186584 -0.40086758136749268 -0.81486576795578003 108 104 101 0.95973634719848633
1.0153740644454956 1.4477177858352661 24.923774719238281 -0.35537999868392944 -0.84545159339904785 -0.39864367246627808 117 112 104 0.96358191967010498
0.9902380108833313 1.4972211122512817 24.972724914550781 -0.72230440378189087 -0.47846072912216187 -0.49935123324394226 109 105 101 0.94824713468551636
1.0727522373199463 1.4730957746505737 24.818748474121094 -0.84423750638961792 -0.22407317161560059 -0.48688200116157532 125 117 107 0.92843383550643921
1.1597989797592163 1.3660916090011597 24.394081115722656 -0.86266648769378662 -0.2041710764169693 -0.46273168921470642 81 79 73 0.96177899837493896
1.0251865386962891 1.3426090478897095 23.500240325927734 0.031545870006084442 0.34969416260719299 -0.93633276224136353 132 120 109 0.96458017826080322
1.1521404981613159 1.3618118762969971 24.422189712524414 -0.80694597959518433 -0.22070649266242981 -0.54783833026885986 81 80 74 0.94550120830535889
1.0434401035308838 1.3501590490341187 23.801486968994141 -0.84029382467269897 -0.19410751760005951 -0.50619029998779297 123 114 103 0.9321366548538208
1.1201550960540771 1.3959276676177979 24.446477890014648 -0.7342267632484436 -0.1941836029291153 -0.65054130554199219 92 86 75 0.93567544221878052
1.1128451824188232 1.3169099092483521 23.466413497924805 -0.20568394660949707 0.75330823659896851 -0.62467658519744873 75 69 57 0.9715874195098877
1.1931754350662231 1.2839087247848511 23.134561538696289 0.26718840003013611 0.68831318616867065 -0.67441481351852417 74 71 65 0.98177111148834229
1.1676208972930908 1.2556592226028442 23.200515747070312 0.476339191198349 0.5967901349067688 -0.64571088552474976 64 59 55 0.98012542724609375
1.1724417209625244 1.3355207443237305 23.264314651489258 0.25851389765739441 0.71426010131835938 -0.6503867506980896 84 75 65 0.96632164716720581
1.2788933515548706 1.2900445461273193 23.069053649902344 -0.32682007551193237 -0.6036299467086792 -0.72719985246658325 39 37 35 0.98457962274551392
1.3704222440719604 1.2776565551757812 23.103939056396484 -0.65558230876922607 -0.079879008233547211 -0.75088691711425781 24 24 21 0.99135249853134155
1.3162474632263184 1.2854856252670288 23.010622024536133 -0.3885798454284668 -0.12469153851270676 -0.91293907165527344 30 29 26 0.98797565698623657
1.4090374708175659 1.2614988088607788 23.066633224487305 -0.76177537441253662 -0.29981511831283569 -0.57429021596908569 23 22 19 0.98991966247558594
1.3873914480209351 1.2868458032608032 22.901163101196289 -0.58593583106994629 -0.68579649925231934 -0.43169710040092468 28 28 23 0.99320673942565918
1.4455673694610596 1.2738233804702759 22.992656707763672 -0.066369816660881042 -0.60938525199890137 -0.79009163379669189 17 17 15 0.99378848075866699
1.4538424015045166 1.238006591796875 23.074705123901367 -0.68497413396835327 -0.54641067981719971 -0.48191887140274048 21 18 17 0.98933953046798706
1.4804246425628662 1.2435802221298218 22.943662643432617 -0.81449580192565918 -0.40692451596260071 -0.41353243589401245 25 23 20 0.99265563488006592
1.5331411361694336 1.2826452255249023 22.861934661865234 -0.38342419266700745 -0.75855427980422974 -0.5268598198890686 41 39 29 0.98645800352096558
1.5972920656204224 1.289243221282959 22.869634628295898 -0.50226616859436035 -0.58875936269760132 -0.63331764936447144 48 52 38 0.99294275045394897
1.591913104057312 1.2392922639846802 22.868879318237305 -0.72203898429870605 -0.51110380887985229 -0.46629676222801208 47 47 34 0.98556959629058838
1.9202946424484253 1.2000337839126587 22.569292068481445 0.04855012521147728 -0.71123141050338745 -0.70127946138381958 35 38 26 0.94340479373931885
1.8881994485855103 1.2298179864883423 22.643753051757812 -0.86824917793273926 -0.25171509385108948 -0.42753130197525024 25 27 19 0.97981858253479004
1.9605313539505005 1.2366865873336792 22.369598388671875 -0.79857885837554932 0.061183851212263107 -0.59877240657806396 47 47 34 0.96980094909667969
