ply
format ascii 1.0
element vertex 312
property float x
property float y
property float z
property float nx
property float ny
property float nz
property uchar diffuse_red
property uchar diffuse_green
property uchar diffuse_blue
property float quality
end_header
-1.4114831686019897 0.23469577729701996 -4.9382972717285156 0.20773805677890778 -0.49173521995544434 0.84560120105743408 160 120 136 0.96437007188796997
-1.4091742038726807 0.20858007669448853 -4.9480509757995605 0.33979406952857971 -0.21575185656547546 0.91541862487792969 134 100 118 0.94141972064971924
-1.3802543878555298 0.2163664847612381 -4.9433832168579102 -0.26148504018783569 -0.61444187164306641 0.74437004327774048 216 171 185 0.95997625589370728
-1.3473304510116577 0.21781545877456665 -4.93017578125 -0.12366755306720734 -0.61937093734741211 0.77529740333557129 230 177 189 0.91957783699035645
-1.1673157215118408 0.1663525253534317 -4.916022777557373 -0.71968632936477661 -0.14000228047370911 0.68003749847412109 231 179 192 0.86292505264282227
-0.6147581934928894 -0.052216131240129471 -4.8330130577087402 -0.33416330814361572 -0.72615295648574829 0.60086339712142944 244 203 213 0.92413085699081421
-0.57466769218444824 -0.043571367859840393 -4.8562784194946289 -0.60708582401275635 -0.5330280065536499 0.58934545516967773 236 191 202 0.96414858102798462
-0.55072158575057983 -0.041166637092828751 -4.8451647758483887 -0.67566084861755371 -0.36500915884971619 0.64050823450088501 213 162 172 0.93455004692077637
-0.56337422132492065 -0.066884532570838928 -4.8493905067443848 0.1845632940530777 -0.65163391828536987 0.7357373833656311 227 178 188 0.94189989566802979
2.0687246322631836 1.8717300891876221 -6.5351567268371582 -0.96350991725921631 0.018238957971334457 0.26705017685890198 117 74 26 0.8579140305519104
2.1033494472503662 1.9025255441665649 -6.5386505126953125 -0.95821595191955566 -0.12730787694454193 0.25615406036376953 90 54 17 0.91127777099609375
2.0511069297790527 1.8150843381881714 -6.4956793785095215 -0.87541258335113525 0.057203095406293869 0.47997990250587463 138 90 33 0.87401723861694336
2.239281177520752 1.2603485584259033 -6.0912094116210938 -0.96447759866714478 -0.21518263220787048 0.15322959423065186 215 178 79 0.92757409811019897
2.3074929714202881 1.2736494541168213 -6.0910301208496094 -0.84419924020767212 -0.21492005884647369 0.49105706810951233 220 185 59 0.86199462413787842
2.2867379188537598 1.2418588399887085 -6.1191601753234863 -0.51136744022369385 -0.75685381889343262 0.40703269839286804 216 180 62 0.93209487199783325
2.3193700313568115 1.2243133783340454 -6.089993953704834 -0.8476797342300415 -0.16288715600967407 0.50488293170928955 216 180 56 0.70500314235687256
2.4098546504974365 0.9841272234916687 -5.9441289901733398 -0.96859776973724365 0.098314560949802399 0.22836966812610626 225 191 60 0.93070226907730103
2.4260547161102295 0.9575236439704895 -5.9196696281433105 -0.9399065375328064 0.063119739294052124 0.33554664254188538 226 192 65 0.95556682348251343
2.4301695823669434 0.953255295753479 -5.913543701171875 -0.89558470249176025 0.17102834582328796 0.41070351004600525 226 193 71 0.95220112800598145
2.4230911731719971 0.95586466789245605 -5.9066696166992188 -0.93236947059631348 -0.21055847406387329 0.29385772347450256 226 192 67 0.95097643136978149
2.4393577575683594 0.92986541986465454 -5.8755536079406738 -0.97134333848953247 -0.11776584386825562 0.20645442605018616 226 189 100 0.95328867435455322
2.4398505687713623 0.9238089919090271 -5.8777132034301758 -0.93462300300598145 0.21782517433166504 0.28112649917602539 226 186 99 0.94950717687606812
2.4425158500671387 0.92548608779907227 -5.8736300468444824 -0.94598847627639771 0.19593089818954468 0.25829637050628662 226 186 99 0.95260393619537354
2.4724023342132568 0.80904042720794678 -5.8300185203552246 -0.91099578142166138 -0.041372008621692657 0.4103352427482605 224 197 130 0.90799844264984131
2.4894976615905762 0.77658230066299438 -5.777923583984375 -0.93048775196075439 -0.1213800385594368 0.34562888741493225 225 196 132 0.97029995918273926
2.4916322231292725 0.72623670101165771 -5.7708425521850586 -0.93067753314971924 0.070296600461006165 0.35902309417724609 226 179 88 0.89122450351715088
2.5030927658081055 0.67859327793121338 -5.7122702598571777 -0.9674752950668335 0.18530049920082092 0.17220626771450043 227 193 117 0.86947453022003174
2.4947075843811035 0.62965315580368042 -5.7002444267272949 -0.87815862894058228 0.0020570904016494751 0.4783652126789093 227 173 70 0.90046572685241699
2.5252985954284668 0.57635557651519775 -5.6346735954284668 -0.8773537278175354 0.35950079560279846 0.31782048940658569 216 158 54 0.82997989654541016
2.5121479034423828 0.52453863620758057 -5.628507137298584 -0.94502437114715576 -0.24961118400096893 0.21124227344989777 224 169 68 0.93679672479629517
2.5202810764312744 0.49471372365951538 -5.5779819488525391 -0.97453641891479492 -0.19853632152080536 0.10422220826148987 216 162 66 0.86793345212936401
2.526237964630127 0.42041975259780884 -5.5563673973083496 -0.97969287633895874 -0.024090660735964775 0.19905157387256622 217 187 100 0.8603818416595459
2.5327064990997314 0.26074913144111633 -5.431908130645752 -0.96573978662490845 0.2473403662443161 -0.078546792268753052 226 202 136 0.85541647672653198
2.5305862426757812 0.22461274266242981 -5.3761591911315918 -0.79501557350158691 -0.46112829446792603 0.39409521222114563 227 201 133 0.9648977518081665
2.5370759963989258 0.22306028008460999 -5.3921380043029785 -0.89346301555633545 -0.34721678495407104 0.28489366173744202 227 202 134 0.96522045135498047
2.5533814430236816 0.14251516759395599 -5.3429293632507324 -0.53229331970214844 0.13803082704544067 0.83523130416870117 232 69 65 0.92014461755752563
2.5741667747497559 0.10776491463184357 -5.3376154899597168 -0.60749328136444092 -0.087440013885498047 0.78949743509292603 235 72 94 0.89195972681045532
-1.3513274192810059 0.19556517899036407 -4.963294506072998 -0.12361805886030197 -0.70039606094360352 0.70296794176101685 228 178 191 0.90918076038360596
-1.1609517335891724 0.13532549142837524 -4.9375238418579102 -0.66522669792175293 -0.053779132664203644 0.74470216035842896 232 180 192 0.79164326190948486
-0.70385605096817017 -0.12716211378574371 -4.8153290748596191 0.20902380347251892 -0.75840246677398682 0.61736106872558594 242 199 210 0.88327550888061523
-0.69034707546234131 -0.11749871075153351 -4.8318166732788086 0.2062041163444519 -0.76118475198745728 0.61488020420074463 242 199 211 0.84217667579650879
-0.69034707546234131 -0.11749871075153351 -4.8318166732788086 0.2062041163444519 -0.76118475198745728 0.61488020420074463 242 199 211 0.84217667579650879
-0.61464059352874756 -0.080608554184436798 -4.8664250373840332 -0.35980334877967834 -0.7278515100479126 0.58375835418701172 237 188 201 0.95035767555236816
-0.53040027618408203 -0.075201414525508881 -4.8598036766052246 -0.00028510391712188721 -0.58122932910919189 0.81373971700668335 195 134 143 0.91211497783660889
0.75162285566329956 0.8307153582572937 -5.6548895835876465 -0.077084451913833618 -0.086259514093399048 0.99328607320785522 186 27 42 0.90106916427612305
2.04018235206604 1.8939021825790405 -6.5750107765197754 -0.91546136140823364 -0.015802573412656784 0.40209552645683289 136 80 33 0.84356188774108887
1.1673516035079956 0.56261247396469116 -5.5334939956665039 0.18965572118759155 -0.78319782018661499 0.59214174747467041 164 32 32 0.73111402988433838
2.2560122013092041 1.2423245906829834 -6.1698265075683594 -0.97598689794540405 0.063755005598068237 0.20829010009765625 216 181 86 0.88621246814727783
2.2742044925689697 1.2022629976272583 -6.1224870681762695 -0.80733996629714966 -0.16429468989372253 0.5667533278465271 218 181 60 0.97605091333389282
2.2788851261138916 1.1524269580841064 -6.0864887237548828 -0.98226648569107056 -0.083595424890518188 0.16782207787036896 218 181 59 0.89744073152542114
2.4163908958435059 0.90009242296218872 -5.9207601547241211 -0.91615551710128784 0.28082406520843506 0.2860017716884613 226 182 91 0.92049157619476318
2.4504754543304443 0.83957576751708984 -5.8580360412597656 -0.89967250823974609 -0.2309882640838623 0.37045073509216309 224 196 131 0.9406164288520813
2.4739067554473877 0.74976617097854614 -5.8155269622802734 -0.92628234624862671 -0.11563900858163834 0.35864830017089844 226 194 121 0.94627726078033447
2.4866695404052734 0.70078545808792114 -5.7566995620727539 -0.89525783061981201 0.096649229526519775 0.43493944406509399 227 178 78 0.86379599571228027
2.4830820560455322 0.65469080209732056 -5.7484855651855469 -0.83531808853149414 -0.03678622841835022 0.54853487014770508 227 193 110 0.86650043725967407
2.5095186233520508 0.55384230613708496 -5.6889581680297852 -0.93609058856964111 0.15658974647521973 0.31498277187347412 229 170 60 0.94802123308181763
2.508854866027832 0.5595056414604187 -5.6799535751342773 -0.90889656543731689 0.27361643314361572 0.31470802426338196 224 165 58 0.93528521060943604
2.5249202251434326 0.47955000400543213 -5.6322364807128906 -0.94658255577087402 -0.025466084480285645 0.32145467400550842 222 189 116 0.90973746776580811
2.5196559429168701 0.36717361211776733 -5.5370011329650879 -0.94374173879623413 -0.035982660949230194 0.32872003316879272 224 196 120 0.90750867128372192
2.5163655281066895 0.3209746778011322 -5.5303082466125488 -0.87628567218780518 0.0063734054565429688 0.4817497730255127 220 192 124 0.91255480051040649
2.5363361835479736 0.25480189919471741 -5.4465994834899902 -0.7457045316696167 0.32788082957267761 0.5800163745880127 226 202 137 0.83389508724212646
2.5296630859375 0.19722810387611389 -5.4236140251159668 -0.97621643543243408 -0.16790252923965454 0.13715048134326935 226 203 136 0.93675154447555542
2.5266509056091309 0.18818248808383942 -5.4238500595092773 -0.78062552213668823 -0.46375781297683716 0.41898995637893677 226 202 137 0.93524867296218872
2.5437726974487305 0.16766126453876495 -5.3863072395324707 -0.82066524028778076 0.032442569732666016 0.5704876184463501 231 191 99 0.97163188457489014
2.5416064262390137 0.11121705919504166 -5.3738861083984375 -0.81415927410125732 -0.36890771985054016 0.44838806986808777 228 129 61 0.93845659494400024
2.5855062007904053 0.06713373214006424 -5.3449645042419434 -0.91058528423309326 -0.00038406252861022949 0.41332128643989563 233 119 136 0.90329056978225708
-1.3848905563354492 0.18466846644878387 -4.9792442321777344 -0.12760990858078003 -0.69903039932250977 0.70361357927322388 174 134 151 0.9354560375213623
-1.1606007814407349 0.098058067262172699 -4.9621891975402832 -0.58215302228927612 -0.50531762838363647 0.63698655366897583 235 180 192 0.77576559782028198
-0.60421425104141235 -0.11215336620807648 -4.882542610168457 0.11590984463691711 -0.75682121515274048 0.64326244592666626 235 191 202 0.97992265224456787
-0.57667833566665649 -0.07354108989238739 -4.8836860656738281 -0.62165570259094238 -0.51979106664657593 0.58597069978713989 233 187 198 0.97144520282745361
-0.52974444627761841 -0.10418529808521271 -4.8845295906066895 -0.16046136617660522 -0.58406537771224976 0.7956882119178772 208 148 160 0.94370573759078979
2.4757733345031738 0.69949644804000854 -5.8084163665771484 -0.9903680682182312 0.016937106847763062 0.13741970062255859 228 178 69 0.85680019855499268
2.4676225185394287 0.67738717794418335 -5.7917685508728027 -0.96511656045913696 0.19954858720302582 0.16950011253356934 227 190 76 0.88360905647277832
2.4920411109924316 0.5270005464553833 -5.7178587913513184 -0.92428165674209595 -0.13862311840057373 0.3556501567363739 228 176 79 0.96600228548049927
2.5008690357208252 0.58025836944580078 -5.7397394180297852 -0.95121479034423828 0.1874455064535141 0.24506047368049622 229 170 58 0.91748040914535522
2.509911060333252 0.50458794832229614 -5.6752138137817383 -0.93178296089172363 -0.14285179972648621 0.33372747898101807 227 184 97 0.94215750694274902
2.5144858360290527 0.45272144675254822 -5.6730399131774902 -0.91116988658905029 0.056774288415908813 0.40810072422027588 222 190 121 0.90430980920791626
2.5172348022460938 0.42590007185935974 -5.6150803565979004 -0.98078864812850952 0.14058466255664825 0.13523897528648376 224 192 85 0.88185858726501465
2.4997713565826416 0.38158529996871948 -5.619112491607666 -0.90418672561645508 0.33816078305244446 0.26094761490821838 225 191 65 0.86123955249786377
2.5003223419189453 0.34441649913787842 -5.5715727806091309 -0.94233798980712891 0.060878060758113861 0.32907921075820923 225 194 76 0.93505644798278809
2.5182204246520996 0.26856875419616699 -5.5276093482971191 -0.9591214656829834 -0.080257385969161987 0.27137601375579834 209 183 120 0.89436590671539307
2.500114917755127 0.15210561454296112 -5.4524388313293457 -0.98099303245544434 -0.081051677465438843 0.17630501091480255 227 203 136 0.89394128322601318
2.5373744964599609 0.14478923380374908 -5.4219226837158203 -0.82015812397003174 -0.27056550979614258 0.50411802530288696 227 201 125 0.96530592441558838
2.5373508930206299 0.14573086798191071 -5.4275126457214355 -0.89090478420257568 -0.18690010905265808 0.41395312547683716 227 202 129 0.96689730882644653
2.5427625179290771 0.098847277462482452 -5.4258999824523926 -0.93533408641815186 0.009972691535949707 0.35362544655799866 230 195 92 0.96731454133987427
2.5787208080291748 0.093037627637386322 -5.3912339210510254 -0.97340816259384155 0.18163630366325378 0.13958865404129028 233 62 66 0.8847275972366333
-1.3514800071716309 0.16792365908622742 -4.9985613822937012 -0.12689639627933502 -0.79371720552444458 0.59490358829498291 229 180 194 0.90488553047180176
-1.2376132011413574 0.12570391595363617 -4.999976634979248 -0.33676803112030029 -0.54408055543899536 0.76848143339157104 237 167 179 0.89548307657241821
-0.74095636606216431 -0.13366422057151794 -4.8754305839538574 0.27774089574813843 -0.63305407762527466 0.72256666421890259 239 198 210 0.87453526258468628
-0.64381200075149536 -0.13057669997215271 -4.8971734046936035 0.13422416150569916 -0.77365827560424805 0.61922270059585571 239 195 208 0.92843246459960938
-0.57713437080383301 -0.10352341830730438 -4.8932223320007324 -0.26558461785316467 -0.60377413034439087 0.75161266326904297 222 174 185 0.97896063327789307
-0.54707789421081543 -0.12327036261558533 -4.9040250778198242 0.067563459277153015 -0.72061574459075928 0.69003492593765259 185 125 138 0.95755350589752197
1.0271354913711548 0.55725854635238647 -5.5949816703796387 -0.058582518249750137 -0.17968003451824188 0.98197931051254272 218 188 202 0.93797725439071655
1.0945752859115601 0.53296351432800293 -5.5932178497314453 -0.49921053647994995 -0.21287587285041809 0.83992421627044678 200 92 112 0.9632912278175354
1.077755331993103 0.4996318519115448 -5.5839080810546875 -0.62084227800369263 -0.22024855017662048 0.75235998630523682 196 48 72 0.95370864868164062
2.2670447826385498 1.1594096422195435 -6.1969375610351562 -0.97920829057693481 0.03810536116361618 0.19924585521221161 216 183 112 0.89480912685394287
2.4624702930450439 0.57906287908554077 -5.8147249221801758 -0.93939584493637085 -0.23160098493099213 0.25277751684188843 228 170 61 0.92844879627227783
2.474776029586792 0.55309581756591797 -5.7612709999084473 -0.93701463937759399 -0.039230413734912872 0.34708034992218018 227 172 67 0.9546891450881958
2.4741714000701904 0.35122600197792053 -5.6412434577941895 -0.97267007827758789 0.18311071395874023 0.14277130365371704 227 187 77 0.89998519420623779
2.492527961730957 0.40193557739257812 -5.6458606719970703 -0.78231173753738403 -0.072202891111373901 0.61868822574615479 228 190 85 0.87742030620574951
2.4872496128082275 0.32502588629722595 -5.6076974868774414 -0.9659576416015625 0.14511141180992126 0.21416965126991272 226 192 64 0.82575589418411255
2.5060446262359619 0.24376827478408813 -5.5684113502502441 -0.93029266595840454 -0.071524500846862793 0.35977768898010254 224 196 112 0.9429851770401001
2.5027358531951904 0.2933998703956604 -5.5687484741210938 -0.93317455053329468 -0.10769009590148926 0.34291160106658936 225 195 95 0.93861883878707886
2.5217010974884033 0.21307763457298279 -5.5260257720947266 -0.98106867074966431 -0.022242311388254166 0.19237852096557617 211 185 122 0.90743213891983032
2.5236358642578125 0.11872901022434235 -5.4657077789306641 -0.94320374727249146 -0.079647809267044067 0.32252606749534607 227 202 137 0.93662339448928833
2.5657880306243896 0.060627050697803497 -5.4476318359375 -0.94514292478561401 0.32654336094856262 0.0086293071508407593 231 174 69 0.94764631986618042
2.5757999420166016 0.0334041528403759 -5.3926167488098145 -0.77255004644393921 -0.20082205533981323 0.60235953330993652 231 68 86 0.87601989507675171
2.5809860229492188 -0.0081395134329795837 -5.3981971740722656 -0.89090931415557861 0.061005443334579468 0.45006567239761353 235 132 148 0.88651961088180542
-1.4209930896759033 0.12730564177036285 -5.025120735168457 -0.21022561192512512 -0.05582733079791069 0.97605770826339722 190 146 162 0.92991691827774048
-1.3749005794525146 0.090201884508132935 -4.9958915710449219 -0.51457619667053223 -0.55496042966842651 0.65362846851348877 232 178 190 0.9701274037361145
-0.57658267021179199 -0.13213467597961426 -4.9116950035095215 -0.080944463610649109 -0.65661865472793579 0.74986672401428223 190 137 150 0.95736336708068848
-0.60372811555862427 -0.14187870919704437 -4.9137454032897949 0.11865653097629547 -0.72376954555511475 0.6797633171081543 229 184 194 0.94802916049957275
0.58410900831222534 0.42804574966430664 -5.4720840454101562 0.0040595531463623047 -0.24464060366153717 0.96960538625717163 233 218 229 0.97596746683120728
0.52684444189071655 0.38184693455696106 -5.4583835601806641 0.025382086634635925 0.068141743540763855 0.9973527193069458 218 140 164 0.98504763841629028
0.60240471363067627 0.39836350083351135 -5.4656367301940918 -0.0866212397813797 0.12177909910678864 0.98877030611038208 221 169 188 0.98761278390884399
0.63906401395797729 0.39850097894668579 -5.4659557342529297 0.049158781766891479 -0.096162900328636169 0.99415087699890137 215 128 152 0.98832798004150391
0.6414152979850769 0.39840152859687805 -5.4660706520080566 0.048079773783683777 -0.092687129974365234 0.99453377723693848 214 124 149 0.98835861682891846
1.0268681049346924 0.525948166847229 -5.6217551231384277 0.31613650918006897 -0.45562902092933655 0.8321416974067688 201 133 148 0.97358477115631104
1.0614436864852905 0.50214636325836182 -5.6285357475280762 0.2100754976272583 -0.5365789532661438 0.81728291511535645 198 81 101 0.96317952871322632
2.071544885635376 0.8128013014793396 -5.9920964241027832 -0.34554862976074219 -0.66409683227539062 0.6630018949508667 201 141 149 0.95237690210342407
1.4969823360443115 0.14672362804412842 -5.4192066192626953 0.15379360318183899 -0.46003758907318115 0.87447869777679443 165 101 105 0.86270499229431152
2.466336727142334 0.52815431356430054 -5.797022819519043 -0.95048606395721436 -0.12704668939113617 0.28361117839813232 227 186 103 0.96555554866790771
2.4954807758331299 0.42640334367752075 -5.7423844337463379 -0.98962253332138062 -0.02722371369600296 0.14108994603157043 223 189 113 0.94848924875259399
2.476123571395874 0.38974651694297791 -5.6980748176574707 -0.98388081789016724 0.11447834968566895 0.137380450963974 227 196 122 0.89067196846008301
2.4476184844970703 0.2746257483959198 -5.6264653205871582 -0.94499200582504272 -0.12978059053421021 0.30024528503417969 228 189 72 0.91994410753250122
2.4897127151489258 0.26793274283409119 -5.6089754104614258 -0.94427907466888428 -0.062554508447647095 0.3231469988822937 229 198 68 0.88103920221328735
2.4939241409301758 0.26271277666091919 -5.6065254211425781 -0.95690661668777466 -0.15277822315692902 0.24695877730846405 229 198 73 0.897491455078125
2.5053353309631348 0.19044654071331024 -5.5661792755126953 -0.8642575740814209 -0.016543567180633545 0.50277769565582275 217 189 116 0.93727147579193115
2.5077259540557861 0.23589497804641724 -5.5736250877380371 -0.98890829086303711 -0.015169131569564342 0.14775100350379944 224 196 111 0.95214486122131348
2.5239675045013428 0.16815978288650513 -5.5291934013366699 -0.97256308794021606 -0.016920175403356552 0.23202341794967651 217 193 127 0.8948509693145752
2.5524756908416748 0.088022917509078979 -5.4891843795776367 -0.97583454847335815 0.096149593591690063 0.19622035324573517 227 202 128 0.95276618003845215
2.5542581081390381 0.002983385231345892 -5.4294090270996094 -0.74719595909118652 -0.35515579581260681 0.56174969673156738 225 110 61 0.90433388948440552
-0.68343383073806763 -0.15074096620082855 -4.9253368377685547 0.3298763632774353 -0.70707434415817261 0.62548172473907471 236 196 207 0.93541800975799561
-0.64010763168334961 -0.15881307423114777 -4.9302315711975098 0.44283425807952881 -0.38797986507415771 0.80831271409988403 234 193 205 0.94318819046020508
-0.60540509223937988 -0.17123788595199585 -4.9337997436523438 0.46247458457946777 -0.60151326656341553 0.65138232707977295 197 147 163 0.86264044046401978
-0.54679220914840698 -0.15346178412437439 -4.9373173713684082 0.13848412036895752 -0.65491670370101929 0.74290388822555542 212 157 167 0.83239316940307617
-0.57647836208343506 -0.16136123239994049 -4.9379653930664062 0.18231759965419769 -0.68908578157424927 0.70137083530426025 173 117 132 0.88141816854476929
0.38577783107757568 0.35816100239753723 -5.4713320732116699 0.021495696157217026 -0.53453528881072998 0.84487277269363403 204 109 134 0.99180644750595093
0.42221701145172119 0.35828512907028198 -5.4710631370544434 0.019820902496576309 -0.56512963771820068 0.82476401329040527 201 85 114 0.98927295207977295
0.50775378942489624 0.35519787669181824 -5.4875926971435547 0.059250906109809875 -0.64042222499847412 0.76573419570922852 190 42 69 0.99416542053222656
0.5689120888710022 0.38442233204841614 -5.4930496215820312 0.28144100308418274 -0.52388244867324829 0.8039516806602478 196 102 126 0.99429613351821899
0.58588331937789917 0.35318583250045776 -5.4847664833068848 0.078173577785491943 -0.60776180028915405 0.79026228189468384 188 33 55 0.99161839485168457
2.4583060741424561 0.37171635031700134 -5.7543225288391113 -0.96359544992446899 -0.01015597116202116 0.26717141270637512 217 188 123 0.85331594944000244
2.4551832675933838 0.31753292679786682 -5.6844029426574707 -0.97470146417617798 0.040422707796096802 0.21982550621032715 227 194 118 0.94458192586898804
2.44777512550354 0.25854659080505371 -5.6742253303527832 -0.91979342699050903 -0.1233651340007782 0.37250655889511108 226 190 97 0.95981109142303467
2.4473085403442383 0.21809367835521698 -5.6286015510559082 -0.88245290517807007 -0.15007534623146057 0.44581887125968933 229 195 64 0.88113230466842651
2.4485507011413574 0.22260977327823639 -5.6225042343139648 -0.91563177108764648 -0.11313766241073608 0.38577020168304443 233 199 64 0.87041401863098145
2.4899129867553711 0.21459686756134033 -5.6075983047485352 -0.95146685838699341 -0.045970261096954346 0.3042987585067749 229 199 74 0.9149012565612793
2.4983415603637695 0.17255178093910217 -5.6134309768676758 -0.95306617021560669 -0.10058107972145081 0.28556668758392334 228 198 88 0.9221266508102417
2.5081698894500732 0.14550790190696716 -5.5706877708435059 -0.98495948314666748 -0.0035122614353895187 0.17275018990039825 208 180 111 0.95306581258773804
2.527768611907959 0.11582069844007492 -5.5357046127319336 -0.95336788892745972 0.050405275076627731 0.29757186770439148 224 200 135 0.88544255495071411
2.5428483486175537 0.031497854739427567 -5.4820165634155273 -0.91163349151611328 -0.016349107027053833 0.41067910194396973 229 200 97 0.96394240856170654
-1.4896887540817261 0.15782266855239868 -5.0957260131835938 -0.68647712469100952 -0.26827317476272583 0.67585396766662598 122 74 85 0.75404763221740723
-1.4729844331741333 0.12638470530509949 -5.0720505714416504 -0.68789780139923096 -0.26464837789535522 0.6758386492729187 118 73 89 0.9042324423789978
-1.4461849927902222 0.1016523614525795 -5.0515475273132324 -0.77031916379928589 -0.039587073028087616 0.63642865419387817 171 127 143 0.95054906606674194
-1.4214631319046021 0.027550507336854935 -5.0135197639465332 -0.76301026344299316 -0.055640064179897308 0.64398723840713501 229 184 197 0.94857054948806763
0.084831498563289642 0.44115522503852844 -5.5015692710876465 -0.59711349010467529 -0.47493055462837219 0.64644914865493774 241 234 242 0.94883739948272705
0.17446479201316833 0.37706035375595093 -5.4939203262329102 0.42484864592552185 -0.42087981104850769 0.80147606134414673 219 166 186 0.99147897958755493
0.24951612949371338 0.37637719511985779 -5.473670482635498 -0.18624347448348999 -0.33034193515777588 0.92530405521392822 232 205 218 0.98448061943054199
0.31606066226959229 0.35844933986663818 -5.4730229377746582 -0.09761415421962738 -0.55784165859222412 0.82418698072433472 206 115 142 0.98514515161514282
0.28311476111412048 0.34441611170768738 -5.4860706329345703 -0.12128901481628418 -0.56494420766830444 0.81616610288619995 199 56 87 0.98450261354446411
0.38724961876869202 0.34116360545158386 -5.4799017906188965 0.10401052981615067 -0.60221874713897705 0.7915266752243042 191 42 69 0.97841984033584595
0.35129311680793762 0.34113341569900513 -5.4794845581054688 -0.058417350053787231 -0.65034776926040649 0.75738716125488281 192 42 71 0.98113411664962769
0.3978467583656311 0.33829888701438904 -5.4818906784057617 0.077474035322666168 -0.6118810772895813 0.78714638948440552 191 39 65 0.97791188955307007
0.47202417254447937 0.35478240251541138 -5.4872016906738281 -0.011576056480407715 -0.64005917310714722 0.768238365650177 187 43 71 0.99442768096923828
0.43494334816932678 0.33774709701538086 -5.4765901565551758 0.068348154425621033 -0.41834759712219238 0.905711829662323 187 34 59 0.96909141540527344
0.46920520067214966 0.32113146781921387 -5.4777007102966309 0.092230908572673798 -0.52114057540893555 0.8484727144241333 190 33 55 0.92895030975341797
2.0134880542755127 0.83270180225372314 -6.0850849151611328 -0.84502303600311279 -0.38379013538360596 0.37234541773796082 196 134 144 0.86050695180892944
1.3276937007904053 0.079484768211841583 -5.4282350540161133 -0.49528765678405762 0.18895861506462097 0.84792971611022949 168 105 112 0.91177457571029663
1.4445011615753174 0.11283498257398605 -5.4532089233398438 0.023138090968132019 -0.56503504514694214 0.82474237680435181 169 108 114 0.93774974346160889
1.4744479656219482 0.1100694015622139 -5.440253734588623 0.063302181661128998 -0.47614032030105591 0.87708795070648193 182 124 132 0.97050201892852783
2.442486047744751 0.40915623307228088 -5.8349809646606445 -0.89544415473937988 0.27129575610160828 0.35295653343200684 227 196 114 0.90930455923080444
2.455923318862915 0.35231238603591919 -5.7971177101135254 -0.90948486328125 -0.081406019628047943 0.40768891572952271 223 196 126 0.84531295299530029
2.445939302444458 0.20420677959918976 -5.6767172813415527 -0.88986194133758545 -0.083711743354797363 0.44848418235778809 227 189 84 0.95381897687911987
2.5009005069732666 0.11831872165203094 -5.618901252746582 -0.96837770938873291 -0.070010155439376831 0.23946437239646912 226 198 100 0.93260735273361206
2.5138480663299561 0.091378495097160339 -5.5832276344299316 -0.9720340371131897 -0.0073652900755405426 0.23472458124160767 216 192 122 0.92408806085586548
2.5190343856811523 0.046802278608083725 -5.5734620094299316 -0.95630097389221191 0.033582024276256561 0.2904493510723114 222 198 131 0.93946611881256104
2.5269296169281006 0.065320722758769989 -5.544069766998291 -0.97318083047866821 -0.027855288237333298 0.22834891080856323 223 199 133 0.91591525077819824
2.5385057926177979 -0.0049727638252079487 -5.5294222831726074 -0.98108589649200439 -0.17305883765220642 0.08672565221786499 228 202 121 0.95277512073516846
2.5493192672729492 -0.033861733973026276 -5.4765110015869141 -0.96893060207366943 -0.23703789710998535 0.070616304874420166 235 185 68 0.94928854703903198
2.5457630157470703 -0.085966020822525024 -5.4671988487243652 -0.81376004219055176 -0.19516545534133911 0.54745322465896606 227 123 56 0.9188988208770752
2.5682756900787354 -0.10968630015850067 -5.4335007667541504 -0.90278613567352295 -0.11648926138877869 0.41401392221450806 238 107 125 0.88433372974395752
-1.4312502145767212 0.01136392168700695 -5.0116581916809082 -0.78044009208679199 -0.022342260926961899 0.62483125925064087 225 181 195 0.94309747219085693
-1.4045648574829102 -0.013887165114283562 -5.0110335350036621 -0.64465904235839844 -0.40415436029434204 0.64890217781066895 239 191 202 0.94373315572738647
-1.252164363861084 -0.020682316273450851 -5.022346019744873 0.26695066690444946 -0.77482318878173828 0.57305014133453369 245 192 202 0.92915475368499756
-1.2413798570632935 0.0067450166679918766 -5.0446076393127441 0.58766108751296997 -0.5905228853225708 0.55311590433120728 245 187 197 0.96568131446838379
-1.2107852697372437 -0.017553353682160378 -5.0295882225036621 0.32550671696662903 -0.75763356685638428 0.56571799516677856 247 191 202 0.88314235210418701
-1.2039235830307007 -0.026306616142392159 -5.0214014053344727 0.25551226735115051 -0.80088770389556885 0.54156476259231567 245 183 195 0.79030990600585938
-0.16179108619689941 0.55872458219528198 -5.6031241416931152 -0.79185670614242554 -0.36131489276885986 0.49235621094703674 171 137 152 0.91856753826141357
-0.17372259497642517 0.5291329026222229 -5.5972023010253906 -0.83460700511932373 -0.30705001950263977 0.45733073353767395 161 127 144 0.86535656452178955
0.083285249769687653 0.41008317470550537 -5.5301723480224609 -0.61530584096908569 -0.54757964611053467 0.56705838441848755 208 157 177 0.99359506368637085
0.25015148520469666 0.33087292313575745 -5.4988512992858887 -0.18991152942180634 -0.66366422176361084 0.72352159023284912 202 38 64 0.97372680902481079
1.8706109523773193 2.4178950786590576 -7.3510775566101074 -0.47583895921707153 0.077949285507202148 0.8760715126991272 116 71 23 0.95631837844848633
1.8832061290740967 2.2224936485290527 -7.2155723571777344 -0.90282976627349854 -0.38427439332008362 0.19295462965965271 165 92 41 0.85986459255218506
1.9643707275390625 2.0246982574462891 -7.0288419723510742 -0.93349927663803101 0.1361096203327179 0.33174312114715576 181 109 67 0.70165896415710449
1.5388867855072021 0.60016274452209473 -5.9102859497070312 -0.22740922868251801 0.069455958902835846 0.97131919860839844 189 33 47 0.90882444381713867
1.4380625486373901 0.050237789750099182 -5.4436383247375488 -0.4715084433555603 0.34848865866661072 0.81008356809616089 211 148 156 0.99486207962036133
1.4352263212203979 0.049368113279342651 -5.4410929679870605 -0.47908788919448853 0.34357753396034241 0.80773091316223145 205 142 150 0.99466735124588013
2.4197320938110352 0.46450513601303101 -5.9322257041931152 -0.9554208517074585 -0.02375333197414875 0.29429024457931519 227 183 95 0.94392549991607666
2.4333364963531494 0.43718415498733521 -5.8848180770874023 -0.92522037029266357 0.087326005101203918 0.36924445629119873 227 179 83 0.93134784698486328
2.4244387149810791 0.34696409106254578 -5.8295168876647949 -0.64959907531738281 0.42270681262016296 0.63193356990814209 228 198 100 0.95229780673980713
2.4220964908599854 0.31374552845954895 -5.8153762817382812 -0.80904042720794678 0.1846000999212265 0.55801105499267578 228 199 106 0.95561885833740234
2.443821907043457 0.35633045434951782 -5.8157405853271484 -0.83410918712615967 0.21964062750339508 0.50598394870758057 227 200 123 0.936268150806427
2.4283108711242676 0.31443744897842407 -5.7925124168395996 -0.96036291122436523 0.034969426691532135 0.27655047178268433 228 200 123 0.94753336906433105
2.4464061260223389 0.28622066974639893 -5.7544655799865723 -0.90897709131240845 -0.055450093001127243 0.4131413996219635 223 196 129 0.90618735551834106
2.4339554309844971 0.25837776064872742 -5.7481355667114258 -0.73687964677810669 0.45937356352806091 0.49596801400184631 223 196 129 0.84045857191085815
2.4486382007598877 0.24236661195755005 -5.7307548522949219 -0.96648001670837402 0.029374092817306519 0.25505629181861877 228 199 127 0.93636542558670044
2.4056885242462158 0.13492725789546967 -5.656641960144043 -0.93855017423629761 -0.13456434011459351 0.31782999634742737 227 193 90 0.9782944917678833
2.4406723976135254 0.1834864616394043 -5.7186126708984375 -0.90154558420181274 -0.1625780314207077 0.400978684425354 227 195 115 0.95717704296112061
2.498570442199707 0.062720544636249542 -5.6145906448364258 -0.75573635101318359 -0.15318804979324341 0.63670724630355835 214 185 95 0.93674451112747192
2.5005738735198975 0.064946085214614868 -5.6208968162536621 -0.96405291557312012 -0.079757414758205414 0.25345787405967712 215 186 93 0.94470453262329102
2.516510009765625 0.038986105471849442 -5.588404655456543 -0.95628464221954346 0.0076170926913619041 0.29233849048614502 218 194 124 0.90632355213165283
2.5210647583007812 -0.0032678961288183928 -5.5737576484680176 -0.95463985204696655 -0.050214376300573349 0.29349854588508606 225 201 136 0.93072843551635742
2.551302433013916 -0.13044112920761108 -5.4683108329772949 -0.7741318941116333 -0.066182762384414673 0.62955516576766968 231 75 68 0.89427721500396729
0.1847512423992157 0.34623166918754578 -5.5415802001953125 -0.12284671515226364 -0.83689510822296143 0.53339982032775879 200 43 72 0.99059724807739258
0.21490606665611267 0.32047051191329956 -5.5228381156921387 -0.16693904995918274 -0.83162873983383179 0.52964609861373901 205 37 62 0.91685646772384644
0.28365671634674072 0.3136897087097168 -5.5197558403015137 -0.45547845959663391 -0.7494121789932251 0.48054212331771851 208 37 63 0.92498713731765747
1.3462982177734375 0.019693721085786819 -5.4617853164672852 -0.33256790041923523 0.28923815488815308 0.89763009548187256 205 142 152 0.99341320991516113
1.3251112699508667 0.029922531917691231 -5.4698390960693359 -0.29873198270797729 0.15080112218856812 0.94234728813171387 196 135 145 0.99259418249130249
1.2929787635803223 -0.024791393429040909 -5.4310946464538574 -0.11230361461639404 -0.37391501665115356 0.9206385612487793 218 154 164 0.95118409395217896
2.4170422554016113 0.40905082225799561 -5.9259481430053711 -0.95977908372879028 0.13475076854228973 0.24630510807037354 229 193 83 0.94093656539916992
2.4106235504150391 0.37565487623214722 -5.891594409942627 -0.79947608709335327 0.43746474385261536 0.41165810823440552 229 195 66 0.92653274536132812
2.4198448657989502 0.37827503681182861 -5.8690061569213867 -0.80753463506698608 0.43623572587966919 0.39697134494781494 228 196 79 0.93409222364425659
2.4136092662811279 0.34411188960075378 -5.8496441841125488 -0.77753919363021851 0.39238026738166809 0.49139651656150818 229 197 75 0.95118153095245361
2.4089281558990479 0.3096337616443634 -5.8433356285095215 -0.87348473072052002 0.057012025266885757 0.4835016131401062 229 197 72 0.95427161455154419
2.4219262599945068 0.28366464376449585 -5.7974238395690918 -0.92974328994750977 -0.034035049378871918 0.36663192510604858 228 199 117 0.9607815146446228
2.4130535125732422 0.2319621741771698 -5.7812042236328125 -0.99507510662078857 -0.070573151111602783 0.069604843854904175 226 198 121 0.9521409273147583
2.4320464134216309 0.19210164248943329 -5.7650747299194336 -0.70985257625579834 0.46834087371826172 0.52608561515808105 223 196 127 0.84927207231521606
2.4614157676696777 0.10777849704027176 -5.6660752296447754 -0.89236593246459961 -0.17387452721595764 0.41647398471832275 225 193 58 0.80856174230575562
2.5062727928161621 0.022241035476326942 -5.6134376525878906 -0.94845724105834961 0.004482997115701437 0.31687355041503906 215 188 109 0.93641644716262817
2.5060100555419922 0.014457695186138153 -5.6238007545471191 -0.94135493040084839 -0.081965506076812744 0.32731133699417114 217 190 105 0.93333560228347778
2.5208728313446045 -0.053724538534879684 -5.5712642669677734 -0.94852918386459351 -0.24209959805011749 0.20415756106376648 227 201 125 0.94287431240081787
2.5420131683349609 -0.077665619552135468 -5.5369539260864258 -0.9842563271522522 -0.052809040993452072 0.16867342591285706 228 198 71 0.9740978479385376
2.5400137901306152 -0.13832570612430573 -5.515129566192627 -0.85950154066085815 0.34823024272918701 0.37415644526481628 233 185 67 0.95738136768341064
2.5527024269104004 -0.17781281471252441 -5.4666142463684082 -0.7980726957321167 -0.11509025096893311 0.59146797657012939 234 57 74 0.8939850926399231
2.5775036811828613 -0.23993006348609924 -5.439486026763916 -0.92707216739654541 -0.046312034130096436 0.37201154232025146 228 152 169 0.89126956462860107
2.5945768356323242 -0.26171255111694336 -5.4028120040893555 -0.91539967060089111 -0.26825028657913208 0.30014228820800781 227 110 137 0.92596858739852905
-1.4789721965789795 0.070723190903663635 -5.1286797523498535 -0.75641316175460815 -0.14524008333683014 0.63776516914367676 119 86 101 0.94038814306259155
-1.4789721965789795 0.070723190903663635 -5.1286797523498535 -0.75641316175460815 -0.14524008333683014 0.63776516914367676 119 86 101 0.94038814306259155
-1.4789721965789795 0.070723190903663635 -5.1286797523498535 -0.75641316175460815 -0.14524008333683014 0.63776516914367676 119 86 101 0.94038814306259155
2.4083559513092041 0.40780875086784363 -5.9454240798950195 -0.96567457914352417 0.19367560744285583 0.17309634387493134 229 194 76 0.94140791893005371
2.4043219089508057 0.35136866569519043 -5.9187297821044922 -0.94401216506958008 0.048526965081691742 0.3263222873210907 230 196 60 0.90082967281341553
2.4024903774261475 0.30200883746147156 -5.8655476570129395 -0.98150920867919922 -0.12337891012430191 0.14634652435779572 229 196 62 0.95353865623474121
2.4009983539581299 0.24268932640552521 -5.8518829345703125 -0.95102298259735107 -0.12370200455188751 0.28328970074653625 229 197 67 0.96521973609924316
2.4146161079406738 0.21861226856708527 -5.8053851127624512 -0.93553274869918823 0.01034114696085453 0.35308843851089478 228 200 113 0.96230995655059814
2.4056317806243896 0.18589787185192108 -5.772672176361084 -0.90548819303512573 -0.1450827568769455 0.39880082011222839 228 200 123 0.92578405141830444
2.4365603923797607 0.15020668506622314 -5.7906332015991211 -0.92085963487625122 0.091277599334716797 0.37905925512313843 223 196 127 0.89486956596374512
2.4401404857635498 0.12519538402557373 -5.7296843528747559 -0.87529993057250977 -0.345094233751297 0.33876240253448486 230 197 102 0.96091294288635254
2.4464597702026367 0.077312186360359192 -5.6941184997558594 -0.9569663405418396 -0.25596091151237488 0.13674598932266235 233 201 64 0.96258652210235596
2.4405910968780518 0.045948624610900879 -5.6926655769348145 -0.98497462272644043 -0.00078338384628295898 0.17269791662693024 230 198 64 0.93699079751968384
2.4841902256011963 0.049782484769821167 -5.6766848564147949 -0.97825139760971069 -0.01372803095728159 0.20696757733821869 226 194 63 0.87669497728347778
2.4929416179656982 -0.010786393657326698 -5.6597104072570801 -0.96962416172027588 -0.0090592652559280396 0.24443167448043823 224 195 71 0.93287205696105957
2.5109212398529053 -0.028649887070059776 -5.6247115135192871 -0.92873120307922363 0.0085347509011626244 0.3706555962562561 221 196 116 0.9098697304725647
2.5298562049865723 -0.10506545007228851 -5.5957431793212891 -0.81058621406555176 -0.50532186031341553 0.2959730327129364 221 191 80 0.96989196538925171
2.5359456539154053 -0.10623196512460709 -5.5750718116760254 -0.97473329305648804 -0.14360903203487396 0.17108927667140961 228 198 72 0.94843161106109619
2.5378916263580322 -0.16032074391841888 -5.5613875389099121 -0.95837235450744629 -0.11562318354845047 0.26106253266334534 228 198 63 0.97099560499191284
2.5405001640319824 -0.19198079407215118 -5.5113234519958496 -0.82896137237548828 0.11488008499145508 0.54738080501556396 229 132 56 0.94460821151733398
2.5644228458404541 -0.21590830385684967 -5.4792361259460449 -0.89760673046112061 0.094089269638061523 0.43063843250274658 234 59 81 0.91129100322723389
2.5612943172454834 -0.26645335555076599 -5.4770760536193848 -0.95217275619506836 -0.0010383129119873047 0.30555865168571472 235 111 127 0.91912895441055298
2.5754680633544922 -0.29803189635276794 -5.434208869934082 -0.98420500755310059 -0.043971717357635498 0.17148512601852417 226 165 182 0.89226478338241577
-1.5262058973312378 0.037244945764541626 -5.1420278549194336 -0.64815402030944824 -0.051509618759155273 0.75976526737213135 96 75 88 0.90388208627700806
-1.5011096000671387 0.060262463986873627 -5.1719193458557129 -0.68576478958129883 -0.32924970984458923 0.64909273386001587 89 61 71 0.88739556074142456
-1.4717493057250977 0.031255811452865601 -5.124781608581543 -0.75437390804290771 -0.15144717693328857 0.63873612880706787 153 119 136 0.97126704454421997
-1.2718647718429565 -0.095316968858242035 -5.0809288024902344 0.18198621273040771 -0.71543592214584351 0.6745610237121582 247 201 213 0.88721072673797607
-1.2245039939880371 -0.096494950354099274 -5.0913610458374023 0.04507976770401001 -0.80068087577819824 0.597392737865448 235 177 189 0.88238847255706787
-1.1784553527832031 -0.148382768034935 -5.0308594703674316 0.078858241438865662 0.12916970252990723 0.98848199844360352 239 187 200 0.75732415914535522
-0.84650099277496338 -0.18706409633159637 -5.0652885437011719 0.55846130847930908 -0.49636948108673096 0.66463398933410645 189 181 207 0.94168996810913086
1.2088286876678467 -0.00051157409325242043 -5.5071940422058105 -0.46463203430175781 0.25809833407402039 0.84705507755279541 203 140 151 0.99074387550354004
1.1908677816390991 -0.063737638294696808 -5.4705753326416016 -0.18413875997066498 0.08449225127696991 0.97926193475723267 220 154 166 0.97630321979522705
1.2269774675369263 -0.063462331891059875 -5.4658946990966797 0.058443754911422729 -0.15153971314430237 0.98672181367874146 223 157 168 0.9360966682434082
2.4038939476013184 0.34767076373100281 -5.9574136734008789 -0.97340446710586548 0.08315761387348175 0.21346749365329742 229 196 58 0.89657843112945557
2.3918159008026123 0.27128571271896362 -5.905850887298584 -0.97283750772476196 -0.11979492753744125 0.19808162748813629 226 191 57 0.85689383745193481
2.3930561542510986 0.19115675985813141 -5.8295230865478516 -0.19472751021385193 -0.17098894715309143 0.96583843231201172 229 197 77 0.97376656532287598
2.3591148853302002 0.19126641750335693 -5.8502631187438965 -0.66732418537139893 0.14458896219730377 0.73059731721878052 230 196 58 0.94732344150543213
2.4058260917663574 0.15467086434364319 -5.8171787261962891 -0.5086517333984375 -0.27002221345901489 0.81753373146057129 228 199 108 0.96362584829330444
2.4078071117401123 0.11889832466840744 -5.7913613319396973 -0.89787161350250244 0.0020731985569000244 0.44025251269340515 227 200 124 0.90174663066864014
2.4361553192138672 0.093625232577323914 -5.7661499977111816 -0.81060260534286499 -0.51184594631195068 0.28449445962905884 224 194 114 0.95164567232131958
2.4570302963256836 0.045666258782148361 -5.7519736289978027 -0.8522411584854126 -0.1145511269569397 0.51045364141464233 229 197 74 0.97079503536224365
2.4381811618804932 -0.0041830446571111679 -5.6846065521240234 -0.89958286285400391 -0.1445680558681488 0.41212961077690125 233 202 65 0.83238422870635986
2.4701058864593506 0.017851924523711205 -5.7099647521972656 -0.91331684589385986 -0.10476365685462952 0.39354437589645386 226 195 61 0.89848381280899048
2.4947223663330078 -0.053462035953998566 -5.6649909019470215 -0.92778962850570679 0.023218454793095589 0.37238079309463501 221 190 69 0.90965664386749268
2.4954612255096436 -0.062599606812000275 -5.6644668579101562 -0.94312763214111328 -0.0091945352032780647 0.33230361342430115 219 189 67 0.9071381688117981
2.511538028717041 -0.078584723174571991 -5.6271920204162598 -0.90066802501678467 0.099519133567810059 0.42295759916305542 226 201 110 0.90809732675552368
2.5051913261413574 -0.1273968368768692 -5.6249966621398926 -0.98294609785079956 0.082104571163654327 0.16454766690731049 230 202 67 0.89948934316635132
2.534172534942627 -0.21690788865089417 -5.5545864105224609 -0.84315407276153564 -0.078013420104980469 0.53198236227035522 232 194 62 0.97541099786758423
2.5452380180358887 -0.24458529055118561 -5.5145583152770996 -0.926902174949646 -0.090733468532562256 0.36417025327682495 231 73 61 0.92919963598251343
2.5686588287353516 -0.31304964423179626 -5.4721622467041016 -0.93724268674850464 0.064541935920715332 0.34265217185020447 230 154 170 0.90133142471313477
-1.4837446212768555 0.0046534477733075619 -5.1607108116149902 -0.67788827419281006 -0.33249983191490173 0.65567642450332642 132 98 109 0.97877925634384155
-1.420371413230896 -0.054770953953266144 -5.1316180229187012 -0.33660313487052917 -0.68893444538116455 0.64192497730255127 229 179 193 0.9680478572845459
-1.3809139728546143 -0.080129086971282959 -5.1164202690124512 -0.27564796805381775 -0.73761957883834839 0.61638897657394409 239 186 200 0.87961012125015259
-1.2275382280349731 -0.09764881432056427 -5.0923652648925781 0.21525967121124268 -0.55143457651138306 0.80596727132797241 239 186 197 0.89837378263473511
-1.0159461498260498 -0.17729021608829498 -5.0719971656799316 -0.28742891550064087 -0.71710836887359619 0.63493317365646362 212 182 204 0.94263797998428345
-0.98741686344146729 -0.17892958223819733 -5.0937891006469727 -0.49813985824584961 -0.59725618362426758 0.62860298156738281 157 156 191 0.94752824306488037
-0.98766195774078369 -0.17565377056598663 -5.0757956504821777 -0.29445800185203552 -0.71566671133041382 0.63333696126937866 167 160 194 0.94291812181472778
-1.0152863264083862 -0.1774151623249054 -5.0720324516296387 -0.24929659068584442 -0.73140090703964233 0.6347472071647644 210 181 203 0.94234585762023926
-0.81253618001937866 -0.19233109056949615 -5.0800032615661621 0.38649922609329224 -0.60186684131622314 0.69883811473846436 207 194 217 0.93376070261001587
-0.83063226938247681 -0.18109509348869324 -5.0939993858337402 0.63593161106109619 -0.49508914351463318 0.59201145172119141 196 178 200 0.97611695528030396
-0.17809672653675079 0.33404403924942017 -5.6005306243896484 -0.36189913749694824 -0.33538001775741577 0.86979842185974121 155 85 103 0.91416049003601074
1.2586585283279419 -0.095447659492492676 -5.4734764099121094 -0.23185214400291443 -0.029832005500793457 0.97229349613189697 225 161 171 0.97051882743835449
2.3891582489013672 0.10697377473115921 -5.8501791954040527 -0.56321543455123901 -0.15436331927776337 0.81176364421844482 228 198 73 0.9710049033164978
2.3764834403991699 0.14531171321868896 -5.846839427947998 -0.11628348380327225 -0.37073752284049988 0.92142921686172485 229 196 62 0.97038984298706055
2.4398601055145264 0.020039226859807968 -5.7864022254943848 -0.98657095432281494 0.15655471384525299 -0.046566680073738098 226 198 113 0.96242755651473999
2.4458103179931641 -0.013028994202613831 -5.7389578819274902 -0.91849100589752197 -0.071165382862091064 0.38898557424545288 230 198 67 0.95594483613967896
2.476487398147583 -0.046106673777103424 -5.7296123504638672 -0.98270338773727417 -0.12827271223068237 0.13356629014015198 219 188 57 0.73572218418121338
2.4944427013397217 -0.10377616435289383 -5.6672806739807129 -0.92969518899917603 0.021542254835367203 0.36769941449165344 215 184 51 0.88431602716445923
2.4957344532012939 -0.11241861432790756 -5.6639704704284668 -0.93817812204360962 0.043583430349826813 0.34339818358421326 210 178 48 0.88493537902832031
2.5014736652374268 -0.18332979083061218 -5.6271963119506836 -0.98497998714447021 0.10258455574512482 0.13889189064502716 221 191 58 0.83612853288650513
2.5325667858123779 -0.18458791077136993 -5.6054935455322266 -0.89264172315597534 0.10580286383628845 0.43817430734634399 222 191 58 0.88376533985137939
2.5292453765869141 -0.23164665699005127 -5.5962939262390137 -0.81754183769226074 -0.0011737048625946045 0.57586818933486938 229 198 60 0.96212917566299438
2.5352530479431152 -0.26281836628913879 -5.5525064468383789 -0.82983648777008057 0.0077210366725921631 0.55795323848724365 232 163 62 0.95885425806045532
2.5505874156951904 -0.28974246978759766 -5.5151581764221191 -0.90439003705978394 -0.086838871240615845 0.41777729988098145 235 54 76 0.91763472557067871
2.5523426532745361 -0.33621299266815186 -5.5134081840515137 -0.93610715866088867 0.084383249282836914 0.3414425253868103 233 66 89 0.92066478729248047
